# Exported By Aspose.3D 23.4.0
-1.1105306830615698 -0.3935927306048334 0.7595563894034623
-0.47174809575326576 -0.3034103043037195 1.64823040264597
-0.4716483888059935 0.06913226534969125 1.648158755383707
-0.4717661947959934 -1.07183647493722 1.6482434082277926
-0.4717690807921351 -0.42285211026331426 1.6482454820423873
-0.4717127126971244 -0.8433305083883834 1.648204977144815
-0.47161180195714747 -0.06346864256574841 1.6481324648630724
-0.47159154674979287 -1.0031618862091478 1.6481179099078438
-0.4715872807925478 0.5135387083862267 1.6481148444829572
-0.4716588884868611 -1.5439123612323402 1.6481663002279667
-0.4717774878727409 -0.9936883339298163 1.6482515231892232
-0.47196894892265856 0.5934915261806075 1.6483891029710933
-0.4718003379131732 -0.36270705759555094 1.6482679427355476
-0.4719434731251022 0.032722362055883636 1.6483707966123207
-0.4719034875543322 0.7546055837275569 1.6483420638434005
-0.4719618264969474 -0.3631555395445505 1.6483839849495627
-0.4718504077767787 0.6923557747801754 1.6483039218598448
-0.47174062701334757 0.4713498987960082 1.6482250357705182
-0.4718828724441534 -0.21047782563118053 1.6483272502697632
-0.47196237010663117 -0.1553747642020967 1.6483843755757592
-0.5998376771942633 0.11702992975521698 1.4699559859041285
-0.5154265138405885 0.38472296637822556 1.587425626241707
-0.7852046657402326 0.035717112767035486 1.2119925529904045
-0.6478235593861218 -0.20339079015049372 1.4031770896254334
-0.7625887376893575 1.0617807636128829 1.2434656997696474
-0.5536143829238752 -1.0278328844304363 1.5342820008224405
-0.7121877882077297 -0.07914209161280414 1.313605491392618
-0.7123169269279652 0.11551984362142365 1.3134257772598301
-0.5549177664512945 0.8360263891709607 1.5324681649729524
-0.7804485859977952 0.6230114838454632 1.2186112862783238
-0.5708063776864597 -1.2335429395601996 1.5103569965788113
-0.9593749698451017 -1.2035607864710507 0.9696108327555895
-0.6256168182738344 -0.990141059965356 1.4340807970012015
-0.8954031505949465 -0.5871066470758718 1.0586363395783098
-0.7910108062472059 -0.23643251723758998 1.2039125170093117
-0.9770940170959996 -0.8280751949039961 0.9449523631291673
-0.9975315598405284 -0.43264792488140397 0.9165107364508973
-0.9471359340821759 -0.7805860084507914 0.9866431193872256
-0.6561403759706965 -1.2082340566062244 1.3916031056388585
-0.4859572637158832 -0.1422238758097546 1.62860747152242
-0.7509574838459846 0.009644918922408846 1.2598235416335188
-0.7244655139142281 0.23146612267784006 1.2966907290537228
-0.630304253920382 0.7407305789240702 1.427728957953204
-0.7648877235663255 1.1314365662889654 1.240437714158207
-0.7307062129627883 0.7712607810159146 1.2880059456250448
-0.502958344362622 0.9167213223131732 1.6049481502955005
-0.632088600347628 0.1411039009529727 1.4252457966660175
-0.56536707150424 -0.1838415350461731 1.5180978992151402
-0.5230735512266051 -0.09056862619652296 1.5769550979343139
-1.0995546588676346 0.7106014954836466 0.7747030534711381
-0.8501285477811786 -1.4233604675101552 1.1218134876368504
-1.05625857808869 0.06526632555003381 0.8349554517921947
-0.8512016241367599 -0.407030127790465 1.1203201556113607
-1.0662033739163108 -1.2990079874681577 0.8211159127704826
-0.8035349419878806 -1.409911498783967 1.1866548415184086
-0.8007561321319787 -0.6357199645236757 1.1905219342271256
-0.8100536131293911 -0.8387732158971059 1.1775832220305478
-1.0339928484879415 0.5135297327633042 0.8659412496906882
-0.757625671483885 1.2054263800382614 1.2504694752513734
-0.6590778280496958 1.2054263800382614 1.3876591393584279
-1.0485413445501814 1.2054263800382614 0.8456404480647663
-0.8140156092979702 1.2054263800382614 1.1720457957990487
-0.9024464646819994 1.2054263800382614 1.0489658027458661
-0.8226525910124162 1.2054263800382614 1.1600162232453963
-0.9983331295528131 1.2054263800382614 0.9155435580017226
-0.8639455743961392 1.2054263800382614 1.1025062650818964
-0.7402324596505427 1.2054263800382614 1.2747299346377243
-0.9736781218637048 1.2054263800382614 0.9498286908791096
-0.6703499450255015 1.2054263800382614 1.371855124396908
-0.5054993132147507 1.2054263800382614 1.6012922918558203
-0.64617920314346 1.2054263800382614 1.4055580620976205
-0.6593793866350983 1.2054263800382614 1.3871796135858232
-0.5535375534718856 1.2054263800382614 1.5344619296907438
-0.7235903622576063 1.2054263800382614 1.2978176003053254
-0.6719650521902917 1.2054263800382612 1.3696830432685274
-0.49430892565854556 1.2054263800382614 1.6169515063965765
-0.5429418001772861 1.2054263800382614 1.5492159965499799
-0.9287920322160195 -1.5958307534456253 1.0122308254799464
-0.9162674013744876 -1.5958307534456253 1.0296544762040605
-0.9098118741597647 -1.5958307534456253 1.0386400593223852
-1.098708511508682 -1.5958307534456253 0.7757142496512119
-0.8386636198469382 -1.5958307534456253 1.13772042584892
-0.9279324205930547 -1.5958307534456253 1.0134268712972512
-0.8749084080128112 -1.5958307534456253 1.0872512956774087
-0.8583988778640796 -1.5958307534456253 1.110234787313338
-0.8183098015729882 -1.5958307534456253 1.166016574126127
-0.9316109622965193 -1.5958307534456253 1.008409511081726
-0.4722304287997765 -1.5958307534456253 1.6475621198846762
-0.7189275565802877 -1.5958307534456253 1.3042329053932349
-0.5220913961450155 -1.5958307534456253 1.5782153007347282
-0.711227159126101 -1.5958307534456253 1.314954290023056
-1.0847746075812297 -1.5958307534456253 0.795104037527085
-0.8067126953253879 -1.5958307534456253 1.1821021291806881
-0.8046160911805591 -1.5958307534456253 1.185044613487493
-0.8381382925438865 -1.595830753445625 1.1383919998618084
-0.5843891843531112 -1.5958307534456253 1.4914766832225237
-1.110394623615425 -1.1513425086713247 0.7594586200173364
-1.1103961413251167 -0.22506672059864036 0.7594597106108836
-1.1104039338053977 -1.1183975616729738 0.7594653101196416
-1.110445487668399 -1.5944862021897919 0.7594951698320067
-1.1104361846619737 -1.083315260265449 0.7594884848916442
-1.1104000239682121 -0.3384570793121515 0.7594625005947184
-1.1104435069547618 -1.0133092222539672 0.7594937465337809
-1.1104261180049697 -1.2037205993915674 0.7594812512083978
-1.1104074413231895 -1.0032244216441315 0.7594678305464999
-1.1104140965210825 -1.3756823899269202 0.7594726128285902
-1.1104678411913662 0.8201856444489983 0.7595112325929136
-1.1104509588056684 0.07561272187791496 0.7594991012735954
-1.1104504446048622 0.42120416236662606 0.7594987317799535
-1.1104395303042425 0.720134916707055 0.7594908889982328
-1.1104345003039997 -0.14845568150608685 0.7594872745482253
-1.1104467681361585 1.1527021479925987 0.7594960899486031
-1.1104347866410258 0.0004022783494611881 0.7594874803038547
-1.1104699970628826 1.0275070781906175 0.7595127817558247
-1.1104616543358068 0.10447628805361481 0.7595067868515528
-0.47174813739947974 0.3541485025158262 1.6482304325702053
-0.47175536694904724 0.42246278006352567 1.6482356275690582
-0.471778184974213 -1.0620535044784276 1.648252024111256
-0.47177330591948796 -1.5806058923404107 1.6482485181274513
-0.47176065667531536 -0.18119678170183118 1.6482394286526023
-0.47177143376550695 -1.5595518767228305 1.64824717283786
-0.4717408843493479 -1.5910830396105629 1.6482252206843526
-0.47176943721775105 -0.6700830551234166 1.648245738161577
-0.47174139103513124 -0.46292150783346625 1.6482255847778604
-0.47177384749921913 -0.7155076012091303 1.648248907295
-0.4718060920230279 0.18741460775857943 1.6482720775164124
-0.4717768163609658 -0.052111596955291134 1.6482510406552078
-0.4717691313828827 0.4565686152573162 1.6482455183952174
-0.47179085175925006 0.541133957594817 1.648261126190593
-0.47178043463334995 0.35914743762571333 1.6482536406679344
-0.47174963393091196 0.8755543706798554 1.6482315079455108
-0.4717856097971856 0.09972451893043105 1.6482573594293783
-0.4717943678108584 1.0058794891867848 1.6482636527496686
-0.4718076596478848 -0.06499516854853771 1.6482732039779238
-1.8643320893567272 -0.5333660059182571 -0.27413248741611296
-1.9906176038885117 0.2389897718392121 -0.4472014416787006
-1.8526038035991503 -0.8121118011631192 -0.2580593680335591
-1.8503456473937034 -0.6767619472133848 -0.25496466050128785
-1.9406887851922772 -0.12156633902754482 -0.3787761082478518
-1.8780678921750795 -0.45034442290190235 -0.2929568239882303
-1.9454684859190552 0.1692613597593915 -0.38532648585480533
-1.9084736025561684 -0.20917673640358944 -0.33462656353655934
-1.8600327140692479 -0.5223673789438726 -0.26824037550014834
-1.9135887852946847 -0.8549896725612298 -0.34163670504565713
-2.1075393669370848 -1.553259943468379 -0.607437770733381
-2.0731092785659406 -0.5961598096806424 -0.5602527914294985
-2.2545048681134525 -1.4905823558589066 -0.8088477716790503
-2.1485822725588473 -1.3305035408727544 -0.6636853362771606
-2.185546426563762 -1.3013600582010598 -0.714343145310529
-1.9122984654199864 -1.3786649266612847 -0.3398683762535054
-1.9554331953948023 -1.3777236154772354 -0.3989826985636985
-1.7844780446147848 -1.5503606192052626 -0.16469589788828187
-1.9532797543654485 -1.01693080245128 -0.3960314987495456
-2.0527550077497496 0.04880540970456804 -0.5315098683012628
-1.774613878526295 0.5977578219051813 -0.1503292194311746
-1.92088791555858 0.060522135818558365 -0.350791598024667
-1.8190738499387487 -0.196719219612145 -0.21125972905792406
-2.1172229458636793 0.2209032553021818 -0.6198604497136293
-1.945448158943798 0.09082231040403904 -0.38445037238904173
-1.8895683280355244 0.4027700854948244 -0.3078694285213188
-1.9503162380174515 -0.019112961738326883 -0.3911218687809162
-1.8909350995321232 0.044887745187028594 -0.30974253102645766
-1.8185415741415103 -0.10214412822879809 -0.21053026759950677
-2.2657358607812306 -0.6907336282502073 -0.8233911157172913
-2.2337463945734433 -0.3386656049844084 -0.7795509058204809
-2.278908610318279 0.051152293904940416 -0.841443811591339
-2.0450403562880504 -1.1757565955080789 -0.5209372648959796
-2.073028444123967 -1.0699260290932002 -0.5592937550407966
-2.1774976468349014 -1.0730713479033764 -0.7024643770465147
-2.273585300982158 -0.5957867267398874 -0.8341484413864937
-2.0614867814697044 -0.7174741465150136 -0.5434763947249228
-2.0655781529555965 -0.5276276805005494 -0.5490834462318862
-2.162126639588785 0.8041690289974213 -0.6814925663881385
-1.9851596433059069 0.8041690289974213 -0.43890617429394346
-2.118255544025628 0.804169028997421 -0.6214907150917423
-2.1525384733392583 0.8041690289974213 -0.6684088838669376
-2.081085682263696 0.8041690289974213 -0.570538522745371
-2.2853408254271863 0.8041690289974213 -0.85047800579786
-2.266239490795983 0.8041690289974213 -0.824368202507492
-2.1282226070731096 0.8041690289974213 -0.6350349647849496
-1.9606375067805406 0.8041690289974213 -0.4053817818100298
-2.123776624843171 0.8041690289974213 -0.6290128842827655
-1.937013418181175 0.8041690289974213 -0.37330422313263045
-1.8856429095804237 0.8041690289974213 -0.3031783001176799
-1.9792804360165106 0.8041690289974213 -0.4315909513044138
-1.8296750435382005 0.8041690289974213 -0.22611366413255984
-2.016018670591706 0.8041690289974213 -0.4820056350348714
-1.9368469277445672 0.8041690289974213 -0.37315579348250194
-1.954623783368875 0.8041690289974213 -0.3976673660475106
-1.808276318614191 0.8041690289974213 -0.19691912263765476
-2.0280316893285812 0.804169028997421 -0.4980868662295948
-2.248415063564685 -1.5958308279514313 -0.8004145745063622
-2.2286574269216257 -1.5958308279514313 -0.7727482169953308
-2.170881949833291 -1.5958308279514313 -0.6935971957162546
-2.2171878078651646 -1.5958308279514313 -0.7569046070944211
-2.2547350577889387 -1.5958308279514313 -0.8089172714569841
-2.2117952684054547 -1.5958308279514313 -0.750113259475608
-2.0519610563777135 -1.5958308279514313 -0.5305804484662201
-2.094555558525056 -1.5958308279514313 -0.5890003154095484
-2.1772871590472715 -1.5958308279514313 -0.702722985570702
-2.084122464560464 -1.5958308279514313 -0.5746022065506701
-1.9352350280526873 -1.5958308279514313 -0.3712917853022054
-1.988001302128333 -1.5958308279514313 -0.44338113755314496
-2.07986868120662 -1.5958308279514313 -0.5691778139079933
-1.9819316213482931 -1.5958308279514313 -0.4349305661292207
-2.1447802007124768 -1.5958308279514313 -0.658232202355378
-1.7813079956429942 -1.5958308279514313 -0.1603443533849197
-1.8855029530181744 -1.5958308279514313 -0.3029588695829912
-1.8751767499369962 -1.595830827951431 -0.2885814322711607
-2.0196674366145824 -1.5958308279514313 -0.4868384836601998
-2.298932207463964 -1.0923536085833208 -0.8693493373887465
-2.2990544698173236 -1.2122090261358975 -0.8692601245941141
-2.2989446845650177 -0.40510736592757823 -0.8693402330567641
-2.2990090241951533 -1.2013591533899959 -0.8692932855046169
-2.299011006509766 -1.050656421940642 -0.8692918390427945
-2.2988734134269238 -1.4932394756383542 -0.869392238414352
-2.2989274082802917 -1.585660897901027 -0.8693528392728145
-2.298814397876513 -0.7847667464103547 -0.8694353010745595
-2.2987815906260796 -0.7766450537017735 -0.8694592399765595
-2.2987821837786546 -0.977448280536304 -0.8694588071630447
-2.299089416956338 -0.05107799451206341 -0.8692346242512023
-2.2990079787119733 0.7537081681127693 -0.8692940483762096
-2.2989601236366655 -0.34870240093635785 -0.8693289674243728
-2.299136300227774 -1.0733826195867355 -0.8692004143120724
-2.2991205555141905 -0.2149527116226906 -0.8692119029662725
-2.2990624524351904 -0.103653421475908 -0.8692542998113514
-2.299027984861335 0.20742600993391747 -0.8692794502235865
-2.298979260391887 -0.5445225057663048 -0.8693150036541151
-2.2990612058344095 0.25126482374650694 -0.869255209435094
-1.7736376627596477 -0.9281680300734163 -0.14941558854729475
-1.7736092820020033 -0.5614560713206176 -0.1494362975115317
-1.7734437770284999 -0.1942786754289357 -0.14955706372292915
-1.7734931520795976 0.07039080296812178 -0.1495210355738506
-1.773616746146066 -1.3746073325774804 -0.1494308510504334
-1.773491241774933 -1.0280178367625925 -0.14952242949121808
-1.773467127593676 0.3975925712658578 -0.14954002520601573
-1.7734608158979503 0.058119683563156666 -0.1495446307448351
-1.7734871516566075 -1.1530347464978066 -0.14952541398216046
-1.7734431596243478 -1.2568142137660936 -0.14955751423241415
-1.7737372512520118 -0.34121040624741994 -0.1493429204898521
-1.7735366230362135 0.39825876844602337 -0.14948931554378025
-1.7738243481076101 0.12235965970148077 -0.14927936737085762
-1.7735227059422782 0.32067224773333036 -0.14949947061448676
-1.7737298685147396 0.1613664066196353 -0.1493483075497769
-1.7735399047956386 0.4292696667993784 -0.14948692089880905
-1.7736437640950053 -0.047527800578666624 -0.14941113650491805
-1.7737061833808376 -0.08957977021388347 -0.14936559019589452
-1.773807717403709 0.025498649248715477 -0.14929150251737616
-1.183064501100691 0.7630059916688421 0.6598555546801752
-1.1847326326946215 -0.6803650363332094 0.6575694507772225
-1.317394684043447 1.1005916159680849 0.47576171182796756
-1.2840517426909765 1.1493533521889272 0.5214568048525027
-1.6614210432376202 0.8167593264851247 0.004288115060080561
-1.5441713638223473 -0.3937348015217529 0.16497384915116944
-1.4912393506158739 0.1522590931071658 0.23751493788947686
-1.4736813799705981 0.8545497280451817 0.2615773951717133
-1.4376054599202983 0.4484877656425661 0.3110179200857521
-1.4137743453472396 -0.25329377872585274 0.3436774562011403
-1.2915719815059896 -1.4545819524384593 0.5111506351422148
-2.1348857279180065 -0.23588351295300847 -0.6445752405028671
-1.4587555575690117 -1.325498046775129 0.2820326044436947
-1.7214348391616363 -0.9301730304090605 -0.07795825782328272
-2.104247572965684 -1.1475807593536964 -0.6025869430144465
-1.9879108447487877 -0.28744188938843335 -0.44315236998607466
-2.165988174198153 -0.27824328764834494 -0.6871998296486773
-1.5842594680150388 -0.9483702607795819 0.11003479530772159
-2.1785147396058613 -0.9837084084534895 -0.704366958533087
-1.9632399821503927 0.8155789861852785 -0.40917234341955877
-1.2760534699184287 -0.15501959016457467 0.5325877511594703
-1.808184164496397 0.9775341512284701 -0.19667489345569242
-1.7513717449075517 0.5729543209840121 -0.11881587164300295
-1.199399618476058 0.3233388055562615 0.637638617407913
-1.917146936190991 1.1537754575425252 -0.3460037704783179
-1.4621582550082004 -0.17796518304647502 0.2775390025475487
-1.685896451397451 0.853970652897784 -0.029084746961313045
-1.4008089551477627 1.0152269798789735 0.36161562717638057
-1.6874949890645823 -0.01932721466851678 -0.031275475326594616
-2.0279301858445358 -1.0667663481561611 -0.4978275356634483
-2.1998056432596966 0.2934690647449502 -0.7333755916131802
-1.7403024411725374 -1.1518213152677128 -0.1036458583396973
-1.8905480115147846 0.14998497188523918 -0.3095510675033956
-1.83552133379446 -0.9770858900492314 -0.23413932950820943
-2.271616787314007 -1.1484632992465449 -0.8317897318976846
-2.203589821116182 -0.5723112434267555 -0.7385616475566428
-1.8425107645782848 -1.389125562590539 -0.24371804922820078
-1.9297547712183492 0.27264885186781873 -0.36328227594437656
-1.6838268994317938 1.2054263800382614 -0.026251347187856648
-1.5515325399496323 1.2054263800382614 0.15503747333504825
-2.2450530109479994 1.2054263800382614 -0.7954288306272199
-2.17636000981256 1.2054263800382614 -0.7012788449272765
-2.178560465109397 1.2054263800382614 -0.7043271130916112
-1.8267116640806274 1.2054263800382614 -0.22211377280150735
-1.1943456697193588 1.2054263800382614 0.6445623926604278
-2.0457325129724393 1.2054263800382614 -0.5222962254146355
-1.9516870137736295 1.2054263800382614 -0.39341972642756695
-1.922999249161816 1.2054263800382614 -0.3540892150303974
-1.1225315993906766 1.2054263800382614 0.7429050704738102
-1.2327249003156346 1.2054263800382614 0.5918103422684396
-1.5717961003685526 1.2054263800382614 0.12712486668044087
-1.703956933427447 1.2054263800382614 -0.05399888735390585
-1.3696021823351348 1.2054263800382614 0.4042815331988345
-1.5267802437662032 1.2054263800382614 0.1888395565858723
-1.1766636665234511 1.2054263800382614 0.6686655540416078
-1.6770311467991443 1.2054263800382614 -0.01707786258446968
-1.6729601311893545 1.2054263800382614 -0.011462396289999073
-1.9868268794398423 -1.5958307534456253 -0.4415523697256854
-1.9133756980902794 -1.5958307534456253 -0.340927185403804
-1.7075930050374108 -1.5958307534456253 -0.058871758551178176
-2.278655565835536 -1.5958307534456253 -0.8415215432333751
-1.961567619692749 -1.5958307534456253 -0.40699071365171374
-2.2323391464281803 -1.595830753445625 -0.7780435475016529
-1.7473450842345064 -1.5958307534456253 -0.11334009662494615
-1.9504720271244453 -1.5958307534456253 -0.39168654678166415
-2.1301429384475314 -1.5958307534456253 -0.637978347051251
-1.7581565432279858 -1.5958307534456253 -0.12814918935845554
-1.43987976788455 -1.5958307534456253 0.3079814430365267
-2.0746239117741103 -1.595830753445625 -0.5619626889906434
-1.834812455664604 -1.595830753445625 -0.23329502739052588
-1.5962476201325084 -1.5958307534456253 0.09363417499406879
-1.620674514935687 -1.595830753445625 0.060168170009125874
-1.1657968170558428 -1.595830753445625 0.6835497230116919
-1.8430200144544209 -1.5958307534456253 -0.24458222846962768
-1.4477592464753253 -1.5958307534456253 0.2971841702380936
-1.803818646830264 -1.5958307534456253 -0.19079324711643184
-2.2989360139922006 -1.3337681612081047 -0.8693466903058714
-2.2989648362152266 -1.0876402584069635 -0.8693256592125072
-2.2989342371524 -0.5803836273256651 -0.8693479868361117
-2.298942777417115 -0.8969017534813766 -0.869341755148
-2.2989301616036038 -0.8868319416976681 -0.8693509606958019
-2.2989605607076795 -0.5958673018755996 -0.8693287789787487
-2.2989446621438536 -1.5936159790450417 -0.8693403798944682
-2.2989127523422654 -0.9248317330839682 -0.8693636639421919
-2.298943227714516 -0.7209518662538899 -0.869341426573529
-2.2989744175634126 -0.994961376696842 -0.8693186678632252
-2.298963970876913 1.054078107372338 -0.8693262906353798
-2.2989834796119437 0.36879484837155374 -0.8693120554382033
-2.298988988096911 -1.3302483345591116 -0.8693080359889906
-2.298971421083721 -0.16564513593649383 -0.8693208543442644
-2.298955269028267 0.9001411999709856 -0.8693326402285794
-2.298969765536886 0.7426418630221729 -0.8693220623690593
-2.2989848289040973 -0.5551815005765582 -0.8693110708823195
-2.29899064111452 -0.8809442341941642 -0.8693068298097298
-2.298962416287188 0.2861944406108906 -0.8693274249934628
-1.1103990881576093 -0.12488481880267437 0.7594618382862224
-1.1103998293157207 0.4051326924630123 0.7594623790968817
-1.110415378127367 -1.4157694474883675 0.7594737248042943
-1.1104016140310147 -1.1995492388850102 0.7594636813737374
-1.110415814921026 -0.7106918929516999 0.7594740435253111
-1.1103897244701955 -0.4162881740827741 0.7594550057603601
-1.1104205814223627 0.006516740532151288 0.7594775215614965
-1.1104177251989935 -0.23801224357115464 0.7594754374231464
-1.1104081508330839 -1.500971432060919 0.7594684511687146
-1.110398196477639 -0.05351180117907803 0.7594611876422839
-1.110453665414568 0.13269758422225864 0.7595016623964455
-1.1104314914009374 0.40978166445778286 0.7594854823901184
-1.1104320232102576 0.31992943984672984 0.7594858704424714
-1.1104501721393492 0.986118314615057 0.7594991134120314
-1.1104495944672605 -0.18824834590987471 0.7594986918943845
-1.1104592336306887 -0.08043451599443041 0.7595057254304801
-1.1104352174305785 -0.026407057564246883 0.7594882012115357
-1.1104301110342565 -0.16659273514494688 0.7594844751596727
-1.1104428796239023 0.47390813749339433 0.7594937921856609
-0.8118310082305519 -0.14406999214505642 -3.1482740788641386
-0.9779845945469701 0.6114636047161273 -3.0270345565181995
-1.039403288727015 0.22099501786138853 -2.982218351760998
-2.661393097542707 -1.227476958348772 -1.7986792297326477
-2.505866981716639 0.5126379670449469 -1.9121640627302519
-0.7866829575136268 0.21993892005927135 -3.166624195310287
-2.5772728550502606 -0.3898165942167745 -1.8600603786173109
-2.285829320288817 -0.6428024143026247 -2.072721902985491
-2.1050202625908474 -0.34412970569139933 -2.204655280272786
-1.1499073746940005 0.8590909955127572 -2.9015853489054466
0.39017948046479267 -1.5646408409380075 -4.0253612410196755
0.517301417591651 -0.417092015374097 -4.118120014866423
-1.103401206839162 -0.7867161603060308 -2.935520129982775
-1.9261660693908622 -1.123111663665024 -2.335162225285936
-0.7055931933127584 -0.28315359639354615 -3.2257940543353922
0.1374741511933829 -0.6274382771784083 -3.8409663441391886
0.7563758526294042 -0.9718767108909329 -4.292568673795179
0.04535551755690426 -1.2058711966803 -3.773748901597934
-1.002022470184973 -1.1739209124148586 -3.009494516455432
-1.5782628423743477 0.3234669010956387 -2.5891452444490675
-2.8023728852663745 0.707574221035765 -1.6959324033102228
-2.065603806576389 0.8045216843278825 -2.2335406076226008
-1.9674145607420774 0.289588593613176 -2.305187675425215
-0.7248346495722654 0.19508357927216702 -3.2118776737981305
0.3718519778361875 0.736506505985947 -4.01211175732234
-2.149787570096996 0.7170365505724318 -2.172113108494866
-1.1517865465673867 0.43748371299228095 -2.9003379399653366
-0.9257972783868249 0.749259454322829 -3.06523856917801
-0.8205263803680432 0.2862749043019791 -3.142053001389059
0.14535893762169805 -0.2557967365510581 -3.8468435339931704
1.0360544595218888 -0.2178473267715769 -4.496769316667506
-0.390133016878923 -0.7142170400675909 -3.4561039163714873
0.014131256056684416 -1.1131329079820729 -3.7510888663737263
0.9430484825739038 0.25897329653118323 -4.428904394396028
1.3067736620988781 0.6850745710159919 -4.694308638796868
0.4925340173788806 -0.6808204670253573 -4.1001714444724335
-0.6137856573061031 -0.181951955555528 -3.2929082857628207
-0.42041886647191334 -1.1992126587695608 -3.434004833108231
0.49967165276030934 1.2054263800382614 -4.105350953259174
-2.1760897997191053 1.2054263800382614 -2.152905319928755
0.6159713265421589 1.2054263800382614 -4.190202374845603
-0.841862188960453 1.2054263800382614 -3.126466924803266
-1.9919603858462591 1.2054263800382614 -2.287263434519426
-0.27464971772375824 1.2054263800382614 -3.5403344446654126
-0.40346607006449386 1.2054263800382612 -3.4463168184757027
1.4289642156576825 1.2054263800382614 -4.783415236831466
-0.7232337687167915 1.2054263800382614 -3.21300166239302
-1.03575676024676 1.2054263800382612 -2.98497389533413
-2.3005177463772277 1.2054263800382614 -2.0620568967093615
-1.1669819174785445 1.2054263800382614 -2.8891267747746596
-2.0003196136372474 1.2054263800382612 -2.2811373859608737
-0.7865590439523154 1.2054263800382614 -3.16677761669904
-1.0399566707399626 1.2054263800382614 -2.9818184348287944
-1.8924688692381144 1.2054263800382614 -2.3598406958008096
-1.265943021188498 1.2054263800382614 -2.8169451255869293
-2.3564045330698162 1.2054263800382614 -2.021253578082104
-1.4620519246970067 1.2054263800382614 -2.673899113173528
0.08930629108817423 -1.5958307534456253 -3.805874641419322
0.5003613035722427 -1.5958307534456253 -4.105864632059952
-0.2905453982802971 -1.5958307534456253 -3.5287662807597524
-0.4464664704205822 -1.5958307534456253 -3.4149319478869384
-0.34510779385458606 -1.5958307534456253 -3.488923616780684
1.4346508932429756 -1.5958307534456253 -4.7875330458184555
-0.6426801386505503 -1.5958307534456253 -3.2717952426041315
0.3398345855934186 -1.5958307534456253 -3.9887069233255743
1.1771624037995658 -1.5958307534456253 -4.599726698467629
0.8281526291480636 -1.5958307534456253 -4.345051849263206
0.7719403545042711 -1.5958307534456253 -4.3039350919989205
-2.5559819486400017 -1.595830753445625 -1.8756011957823073
-1.0592249226650936 -1.5958307534456253 -2.9677917960985525
0.8445859936996605 -1.5958307534456253 -4.3569395288810355
-1.8253948893129683 -1.5958307534456253 -2.4087516295293057
-2.8525109043249173 -1.595830753445625 -1.6592594508762761
-0.9880546292263946 -1.595830753445625 -3.019692007765727
-1.3625618314667043 -1.5958307534456253 -2.746468212749474
-1.3059787086568628 -1.5958307534456253 -2.7877522764866383
1.5032619980321513 -0.6857683088332742 -4.837581067536689
1.5032611738181445 -1.467539550775243 -4.837582197086778
1.503243404063828 -1.4776131588185044 -4.837606549776018
1.5032312696459202 -1.4545668706231407 -4.837623179477427
1.5032196827262814 -1.4841393542702772 -4.837639058855847
1.5032190404372305 -1.4849521690233909 -4.837639939085555
1.5032304529300884 -1.3212757115582943 -4.837624298751589
1.5032622493482064 -1.0189665599288344 -4.83758072311877
1.5032412951464167 -0.5189457014951883 -4.837609439957245
1.5032596946991745 -0.9854331226515005 -4.837584224156145
1.503213734677924 -1.4854351060507593 -4.837647210402045
1.503237327555265 -0.12057010206345489 -4.83761487737144
1.5032377336630414 -0.28052365428805714 -4.83761432081808
1.5032235534882088 -0.9726779361264781 -4.837633754141969
1.503228664001234 0.3633255587883897 -4.837626750402167
1.5032349825707745 0.687324807313888 -4.837618091072516
1.5032339641644707 0.3219885935364061 -4.8376194867548525
1.5032356343659576 -0.09226660103484928 -4.837617197815059
1.50322236707926 -0.718828663700047 -4.8376353800647545
-2.877484368499663 0.2691051675880323 -1.6410219412137168
-2.8774787043297083 0.3668128062523828 -1.6410141787107437
-2.877484640366624 0.7048848287557583 -1.6410223137957736
-2.8774970247946015 -1.5276907230480614 -1.6410392861253054
-2.8774772513652307 0.8452429968422239 -1.6410121874849917
-2.877477970476784 -1.3664424933993427 -1.6410131729966586
-2.877494101050387 -0.13806506001917673 -1.6410352792587493
-2.877500076884551 -0.21802857541823165 -1.6410434688842073
-2.877493568761407 -0.3609034642564011 -1.6410345497794394
-2.8774763390280476 -1.2144166199763642 -1.6410109371658537
-2.8775103103578816 0.14531961082806344 -1.6410574934222746
-2.877520113267014 1.0135889229005377 -1.6410709278905005
-2.8774953120672664 0.45437532919488655 -1.641036938905652
-2.8775180691327367 0.1617651396720885 -1.6410681264917903
-2.877526945616562 0.32358934587500165 -1.641080291333706
-2.8775158618887677 0.5892090921303011 -1.6410651015582158
-2.877526606633583 0.7783725279580506 -1.6410798267720133
-2.8775092401735463 0.041927030499804646 -1.6410560267803571
-2.877504066228708 0.8310070628739845 -1.641048936109966
3.4423074472246125 0.030033469975960125 -2.179407902726499
3.4714607968575972 -0.3318218934775442 -2.1394544719825297
3.4589726716939526 -0.3388777745145657 -2.1565689185256876
3.614145189976082 0.013374806392428495 -1.9439115552860982
3.429102458026238 -0.4581380887487415 -2.197504781063087
3.4306371329161034 0.2516968265293953 -2.1954015741349417
3.593817310477038 0.17886399128136632 -1.971770053056039
3.4252002277203086 -0.24727843201250643 -2.202852622399939
3.554348843200683 0.06465394775297606 -2.0258599155846433
3.6127339340454396 0.3737949557655237 -1.9458456217586226
3.7421159063124243 -1.1421561287071968 -1.7685331093522083
3.7377629344234657 -0.9006311051314163 -1.774498672935309
3.538229845558048 -1.3105909293596159 -2.047950319057477
3.83190168403282 -0.65700466963378 -1.6454855042877603
3.520633019710633 -1.5226124864484023 -2.0720660234845574
3.4824714831895314 -1.3318554271678997 -2.1243647927743208
3.858013757162233 -1.0161774333283957 -1.6097000141642828
3.77383277143609 -0.573934352720939 -1.7250664892180851
3.6694672362453145 -0.5896720863251929 -1.8680950343010905
3.5130191353157576 0.21332813444376397 -2.0833487857126474
3.6403762717281793 0.4556342880517428 -1.90881122507341
3.61478983346107 -0.08410762999234023 -1.943876354883852
3.519878328845015 -0.4541589766562284 -2.07394855153439
3.7829678828025894 0.046640040654326254 -1.71339546223816
3.8236666806096418 0.4629806762850508 -1.6576194838337053
3.821808487687924 0.24052182149551238 -1.6601660585203677
3.418387975718778 0.14412870778500197 -2.2130367813898824
3.4403102904641165 0.1420460669017627 -2.182993177654742
3.5904224674370777 -0.10314473034387883 -1.9772707978246735
3.8834202033929732 -0.9125181457134839 -1.5757298120022758
3.841317906029376 -1.0588126028482028 -1.6334292270971127
3.8635473516256216 -0.809787105602678 -1.6029647135407847
3.702538682691371 -1.500517473273836 -1.8236202740313365
3.7307666064408416 -0.6444551930572155 -1.7849351002599323
3.695993270989483 -1.5360811236325875 -1.8325904835068985
3.649481357575125 -1.5855152596212296 -1.8963330906091547
3.6586618320372195 -1.1557574886533137 -1.8837516392412785
3.865098390230884 0.09885090067485536 -1.6008390808338495
3.708874455385273 0.492698073387146 -1.8145625476539318
3.6225083570552417 0.492698073387146 -1.9331053258237272
3.836342765893392 0.492698073387146 -1.6399056575912068
3.7170331130628416 0.492698073387146 -1.8035151477831515
3.699090125077036 0.492698073387146 -1.8283334856615052
3.665379548529787 0.492698073387146 -1.874447117796046
3.626937609748103 0.4926980733871458 -1.9271030309517598
3.7470732536918785 0.492698073387146 -1.7623254412384948
3.5895889503412044 0.492698073387146 -1.9782015437917475
3.6935879210215576 0.492698073387146 -1.8358184144237162
3.415179833842358 0.492698073387146 -2.2170939789404223
3.439109148299522 0.492698073387146 -2.183868820073165
3.4234468205498954 0.492698073387146 -2.2052957991580313
3.421789453210352 0.492698073387146 -2.207880770265089
3.5918505970216534 0.492698073387146 -1.9747133108522616
3.622456200826551 0.492698073387146 -1.932546728976255
3.4383768841585134 0.492698073387146 -2.1848534819392675
3.5462978312289715 0.492698073387146 -2.0370976896306896
3.4524493984074573 0.492698073387146 -2.1658414336613
3.7852499596729134 -1.5958307981491089 -1.7097894334106731
3.8751198476076305 -1.5958307981491087 -1.5866389690050648
3.8524361604233515 -1.5958307981491089 -1.6178275991756499
3.784325212195912 -1.5958307981491089 -1.7114043686446512
3.6632653052263207 -1.5958307981491089 -1.877391099991942
3.7474147904256623 -1.5958307981491089 -1.7618811523020919
3.7815540416924693 -1.5958307981491087 -1.714886452195714
3.7139511383292954 -1.5958307981491089 -1.8075244369634307
3.8144746858666494 -1.5958307981491089 -1.6702151774647955
3.844800631812562 -1.5958307981491089 -1.6282848404649009
3.6587330485402165 -1.5958307981491089 -1.8829539202229904
3.7119429477679957 -1.5958307981491089 -1.8101226451583838
3.5146187069139345 -1.5958307981491089 -2.080409556970376
3.6762016920802902 -1.5958307981491087 -1.8592252801699942
3.832499650299422 -1.5958307981491087 -1.6447386225808969
3.6132195805889338 -1.5958307981491089 -1.9453165348794297
3.611912990559323 -1.5958307981491089 -1.947257763623242
3.7299264203365055 -1.5958307981491089 -1.78540402340579
3.5712105590900056 -1.5958307981491089 -2.0031338032599035
3.888482466557475 -0.9880012564691412 -1.5680050504898275
3.8885658950655735 -0.8641504762105694 -1.5680659268769976
3.8887094552724926 -1.3692999658495744 -1.5681706803592046
3.8885849718509906 -0.6527157743885785 -1.5680798468882924
3.88857778256342 -0.6894669881242556 -1.5680746009853794
3.888726579811188 -1.0417991649527256 -1.5681831758487141
3.8886627012235757 -1.26786237261607 -1.568136564711586
3.8885063036360146 -1.2999140910410372 -1.5680224440074064
3.8885639439822106 -0.6540916248830657 -1.568064503204096
3.888588144640908 -1.2173933487423771 -1.568082162020036
3.888689107274863 -0.26476991995240123 -1.5681558327656173
3.8888078236109247 -0.2436531457527521 -1.5682424580907282
3.8887795304381063 -0.5904473400348695 -1.568221813035674
3.8886590031290784 -0.5263569891687016 -1.5681338662738753
3.8886765860933665 -0.20871821390869216 -1.5681466962688733
3.8886787788460193 -0.09952956234275073 -1.5681482962838145
3.888700851926784 0.2125149155601901 -1.5681644026417163
3.8887890039999475 0.4777084438256398 -1.5682287257353216
3.8887383602583574 0.2657377488476861 -1.5681917718440073
3.409145706043807 -0.697412047203471 -2.2248832464166837
3.4091513422587174 -0.07215360695694384 -2.2248873590684477
3.4092215680524607 -1.3405271562672114 -2.2249386016557446
3.409139612716428 -0.6183318352840909 -2.2248788002175943
3.4092479283622197 -1.3102910270827866 -2.2249578363329476
3.409310621924724 -0.6230160552763353 -2.2250035827770716
3.409202541233903 -0.5148609511439663 -2.2249247181044316
3.4092728926399873 -0.31588492518909206 -2.2249760523489526
3.4091480544879094 -1.4393508885908084 -2.2248849600370715
3.409225671267678 -0.1940238508299933 -2.22494159570327
3.4093608258549737 -0.1765272549013241 -2.2250402157454063
3.4092937696642065 0.08447368764406893 -2.2249912859643954
3.409218246313653 0.38357466093510817 -2.2249361778384866
3.4093292883380717 0.27005831958771065 -2.22501720334673
3.409325377540567 -0.016007605927356505 -2.225014349703192
3.409357491787045 -0.44170931348498765 -2.225037782931795
3.4094000333699195 -0.3662269728719136 -2.225068824813388
3.409516142668406 -0.40049305903845467 -2.2251535478267783
3.4094757601286814 -0.23291535444109546 -2.2251240813628654
1.7065477727198188 -0.030413129113448234 -4.55853208832259
2.5134815790788236 0.7163694070982745 -3.452663619509711
2.2102032552977695 -0.6140200915125111 -3.8682936661143983
1.8396957140799848 -0.8445566551234698 -4.376058496465113
1.9220675432015377 0.05871562076845449 -4.263171407305979
1.7133494299105287 -0.5813363024681004 -4.549210706365847
2.4700516394902428 -0.05505130085989418 -3.5121825049684423
2.4853994730852156 -0.2504453825624559 -3.491148951654013
2.1795581455282544 -0.7315790081297148 -3.9102914859483815
2.2124135424238056 1.1127945118865106 -3.865264561594989
2.9489878697167753 -0.23506444620590905 -2.8558207669847064
2.5766918681116153 -1.294710604329614 -3.366036606246602
2.4808148532571415 -1.4589029082567542 -3.497431978179123
2.6037433754000188 -0.6028674826961655 -3.328963665804201
2.7711622255642117 -0.9581350248070705 -3.099523250713798
2.550032018406796 -0.9589244962494299 -3.4025727966249404
3.748898269324892 -1.521151318093137 -1.759577578471461
3.3424889357409118 -0.9868390461559952 -2.3165442886278877
3.726053034321301 -1.5256228233050158 -1.7908860016085268
2.80471308484207 1.1436593105628015 -3.053712875963929
1.5454824482308194 0.31586699455514833 -4.779434917868327
1.6674805571526474 0.24375952991736355 -4.612241697249403
2.8513659366018334 0.3440131286634879 -2.9897771264207127
3.0608708655136887 0.22217032852349067 -2.702659530009802
1.6322979610193957 -0.19443523867347418 -4.660457949199853
3.0279854526222003 0.940611430981664 -2.7477275900092737
2.5162190315518522 0.10527299535016926 -3.449081708524322
2.5961872458492605 0.061074458827711064 -3.339488671274089
2.02803432830287 -0.16351977543877474 -4.118118085517597
3.0699668908868194 -0.24635603114134466 -2.690193814021207
2.9253032747935954 -0.2927509762151919 -2.8884491484256416
3.3130211704416537 -0.9676784112204669 -2.357098259154667
3.6639747641000437 -0.13530974601165102 -1.8761312824523533
3.231861395915057 -0.6966176093943315 -2.468324279030943
2.8979211193441143 -0.9371023202499612 -2.9259752281128297
2.8461304942543686 -0.6432010480484448 -2.996952077534079
3.415528812444616 0.056004172776021266 -2.216615894665651
3.1485648332691842 -0.5376525844566094 -2.5824786761632224
2.803369758103969 1.2054263800382614 -3.055481376888736
3.881379477049783 1.2054263800382614 -1.5781403450980411
2.2255767069992225 1.2054263800382614 -3.8473743764248316
3.926918829567005 1.2054263800382614 -1.5157062999129807
3.8287479484397418 1.2054263800382614 -1.650316047119569
3.092281374542077 1.2054263800382614 -2.659571265005748
2.2580734523486528 1.2054263800382614 -3.8028570174652896
3.8850089507223453 1.2054263800382614 -1.5731769731410994
3.069431061646996 1.2054263800382614 -2.6908557075815485
3.77741971078899 1.2054263800382614 -1.7206341017877067
2.3319460771436624 1.2054263800382614 -3.7015568853349565
1.6469243858802425 1.2054263800382614 -4.640308034663098
2.6039794729876626 1.2054263800382614 -3.3287084075423197
2.558052537605904 1.2054263800382612 -3.391634744290092
1.9336528210748984 1.2054263800382614 -4.2473361401867065
2.42450916262341 1.2054263800382614 -3.5746588246348217
2.478118015424321 1.2054263800382614 -3.5012161209078214
1.9171162027234974 1.2054263800382614 -4.270082930705519
2.251185302350086 1.2054263800382614 -3.8121854894079807
3.172581643205545 -1.5958307534456253 -2.5495160257357883
3.92222352659376 -1.5958307534456253 -1.5221430498893482
3.6099200642108604 -1.595830753445625 -1.9500881696614079
2.9557130870931037 -1.5958307534456253 -2.846679480693901
3.87165182585322 -1.5958307534456253 -1.5914633986717694
3.925914790651628 -1.5958307534456253 -1.5170612745457395
2.7674190399413945 -1.5958307534456253 -3.104775583388889
3.637892394973685 -1.5958307534456253 -1.9117459854528942
2.907152182460575 -1.5958307534456253 -2.913306648601272
3.477860172338886 -1.5958307534456253 -2.1311517781371734
2.0938600392272972 -1.5958307534456253 -4.0277388820594
1.554042871696134 -1.5958307534456253 -4.7675447542433815
2.5600817636879487 -1.5958307534456253 -3.38883901501649
1.9108298105035741 -1.5958307534456253 -4.2785874852439925
2.0516074407183864 -1.5958307534456253 -4.085661904143112
2.425074814212627 -1.5958307534456253 -3.5738807053746706
1.9735632158685537 -1.5958307534456253 -4.192682616247586
2.5004240174153156 -1.5958307534456253 -3.470633311741244
2.1910897721097813 -1.5958307534456253 -3.8945480633959155
3.9712709730065745 -1.109950263278515 -1.4548548545252549
3.971270411018386 -0.7985103801453468 -1.4548544444518614
3.971273319557424 -0.23528147603121757 -1.4548565667642102
3.9713003073231086 -0.6815871841449915 -1.4548762592859952
3.971292748093409 -0.33679164050614296 -1.4548707434423616
3.971285862864825 -0.5128810138007223 -1.4548657194060828
3.971257870095477 -1.366963804953236 -1.454845293549913
3.9713032339009087 -0.9119936952918375 -1.454878394760927
3.97126009427323 -0.6662226741318323 -1.4548469164952642
3.97126024759706 -0.7331904548450711 -1.4548470283731014
3.9713224620290175 -0.5323613882924878 -1.4548924252047992
3.971304760486193 0.035942992031856 -1.4548795086847075
3.9713031807491284 0.9375448780434352 -1.4548783559769607
3.9713040574102125 0.9241352226848019 -1.454878995661909
3.971304218483774 0.3951447090087966 -1.4548791131945964
3.9713064080221105 0.8892426851080071 -1.454880710864144
3.971315800650213 -0.5300553702772317 -1.4548875645079649
3.9713036972975537 0.29734385372978644 -1.4548787328937178
3.971309489830263 -0.1564425809829702 -1.4548829596080708
1.5030320393081393 -0.10484492278478272 -4.837453115348603
1.5030580692813795 -1.4813406985737614 -4.837472108985241
1.5030345795366646 -1.3556155504368916 -4.837454968910922
1.5030288509255318 0.44981248917626937 -4.837450788839076
1.5030493143413086 -1.0788020029194612 -4.837465720651725
1.5030336180341881 -1.1534327829302617 -4.837454267318628
1.5030495862287194 -1.134169556435784 -4.837465919043426
1.5030511363331844 0.27010056768839963 -4.83746705012876
1.50303094613597 -0.18533856015336544 -4.837452317679133
1.5030294112362943 0.8302060330735659 -4.8374511976884795
1.5030372979722484 0.9946094961506822 -4.8374569525079565
1.50309950634609 0.5122721693046202 -4.837502344919147
1.5031029734234513 0.5194489019822671 -4.83750487478758
1.5030804177943407 0.5134433673087154 -4.837488416321814
1.5031056892505497 0.3237972411908575 -4.837506856481246
1.5030946177754452 0.8915902639081394 -4.837498777810813
1.50307639991938 1.0336729027572908 -4.8374854845455735
1.5030767954990845 0.2331196752145155 -4.837485773193476
1.5031050421259735 0.9756682997551651 -4.837506384285253
4.0933230678074235 -0.36896468966158585 1.7530127828779714
4.300828458419922 0.7751879637033033 1.6015996015823846
3.2829785096375375 0.12248406374033388 2.3443075301416556
2.79700584157209 0.3888506106903489 2.698913583879817
3.0173122942930095 0.7008216434243042 2.538159683617473
4.137991315624271 0.5142123968504742 1.7204191163477434
2.812951891127737 0.22852980567037118 2.687278020653287
4.19600780528618 -1.2460113511099054 1.6780854630321214
3.0900932121996867 0.7728943439243456 2.485052676202702
3.3675858455502414 0.14838750242369259 2.2825709851117972
3.305704853580155 -0.8942064824229774 2.3277245005374017
1.9114355047503935 -1.1942521112045092 3.3450993121801273
1.2900305461787747 -0.7518483229831865 3.798528022501613
3.699447699326155 -1.2962697354729855 2.0404169915093036
2.3535738909993 -0.6083350151795306 3.0224783940572815
1.5903544012537114 -0.7989192816613743 3.579386774259207
3.171666585619051 -0.7392506533232943 2.425529962397623
1.4244359393622412 -1.2485747993289968 3.7004546755628995
2.146287638156377 -1.4672057571540487 3.173731674220973
3.4705252653996133 0.8267538130982788 2.207581619491642
3.9727591471956156 1.1595290847829005 1.841110032547798
2.4643024581899113 0.24643465241635149 2.9418054190858904
3.397791456659993 0.1084526178247372 2.2606542521423107
3.433068153968147 0.7879351994958088 2.234913441509571
3.378069367610104 0.8048328162247338 2.2750451276565524
3.3291940540822362 0.8977000044796444 2.3107086190301014
4.172286923068271 0.34724204967352934 1.6955179820832929
2.6393151198546345 0.3870782851505459 2.8141016336977343
3.4545025730066685 0.8475181533670602 2.2192731077029864
2.488497896574067 -0.9643194735522891 2.9241504160627265
1.915164100128015 0.06604512681450858 3.342502410716617
1.315648287278031 -1.3498535651154029 3.7799589808456355
2.270677562300479 0.13001989327058228 3.083090237654261
2.0053186119499653 -0.7561249124908711 3.276718185049903
2.1409222466903275 -0.08438264979533087 3.1777705014708033
1.2680368114660088 -0.14677525976320738 3.8147002711687312
1.3219597030018722 -1.5379653225482977 3.7753536473147573
1.813375957762249 -0.3395233369580729 3.4167755002410702
1.4485243691590997 1.2054263800382614 3.682960954822331
2.7026918591013955 1.2054263800382614 2.767797794180361
4.093381215014698 1.2054263800382614 1.7530926477951854
1.3983548128154928 1.2054263800382614 3.719575726302261
2.9724054708207133 1.2054263800382614 2.5710346758274896
1.9850942798177147 1.2054263800382614 3.2914324560019277
2.673033436676997 1.2054263800382614 2.789495990818116
1.2390457758288624 1.2054263800382614 3.835793635163806
3.128996546206727 1.2054263800382614 2.4567425137516885
2.6304807114893998 1.2054263800382614 2.8205033561420834
2.851074476258419 1.2054263800382614 2.6594946936075035
3.9209705790578617 1.2054263800382612 1.8787927715730186
4.088031411668119 1.2054263800382614 1.7569226092960972
4.24114758545816 1.2054263800382614 1.6451565550827751
3.4687304611554444 1.2054263800382614 2.208807171022684
3.2337578830829075 1.2054263800382614 2.380228383421202
2.9819700123605415 1.2054263800382614 2.5640178777393716
3.456322247390837 1.2054263800382614 2.2178426587257247
3.200591644429872 1.2054263800382614 2.404457530924558
2.4344012978982774 -1.5958307534456253 2.963613846499257
2.2747659439684282 -1.5958307534456253 3.08006195924228
1.2966151225140612 -1.5958307534456253 3.79379883656447
2.371700030616543 -1.5958307534456253 3.0093320415406177
1.88954254260181 -1.5958307534456253 3.361142325814321
1.1917659572791546 -1.5958307534456253 3.870275919184038
2.6920931728482675 -1.5958307534456253 2.7755504921424228
2.2683494929483135 -1.5958307534456253 3.0847175389215558
1.8378453623010857 -1.5958307534456253 3.3989013192858106
1.931787256245486 -1.5958307534456253 3.3303346653155637
3.9835475106602756 -1.5958307534456253 1.8331623391900798
3.6918256098241464 -1.5958307534456253 2.046013846147104
2.0383576381607376 -1.5958307534456253 3.252494589307463
4.19095629704367 -1.5958307534456253 1.6818032665047813
4.110586302931247 -1.5958307534456253 1.7404558555141758
2.286140515443682 -1.5958307534456253 3.0717175679786104
2.693414539284542 -1.5958307534456253 2.7745235448452505
2.9410628410021027 -1.5958307534456253 2.5938398081059395
3.877220322709329 -1.5958307534456253 1.910741219127986
1.1565423566636315 -0.42907717118244404 3.8959725831154115
1.1565279765942231 -0.2096122320522435 3.895952875836689
1.1565254062357688 -0.7530574451765217 3.8959493532688176
1.1565384858774677 -1.200536957459161 3.8959672783662036
1.1565415662137981 -0.8314846588286708 3.8959714998372474
1.156541214220158 -0.9916536151763918 3.8959710174448077
1.1565500917503098 -0.3183313154581453 3.895983183725519
1.1565534008623377 -1.1940405273429575 3.895987718724009
1.1565533890254804 -0.2716367577397361 3.8959877025020955
1.1565300331031714 -0.3983570903638283 3.8959556941954796
1.156560992210227 1.0747069650740682 3.8959981223461675
1.15656465453083 -0.6015757723625601 3.8960031414021152
1.156555858906263 0.9697220340795263 3.8959910873695547
1.1565808682961818 0.33217228268323273 3.8960253616838028
1.156562531629844 -0.6247905010154785 3.8960002320558362
1.1565576454614777 0.3805833942783651 3.8959935357681377
1.156571184181863 -0.027489812553683268 3.896012090013504
1.156562310061211 -0.5003902213370407 3.8959999284053684
1.1565641663535766 0.9139052667333067 3.896002472375776
4.344706915061297 -1.342381493751439 1.569609375042939
4.344707857677378 -0.7241202721263098 1.5696106668585263
4.344701000396514 -0.09593161202655646 1.5696012692442705
4.344717187228708 -1.4312658831038103 1.5696234526152022
4.344694090141924 0.13356982402912526 1.5695917990317583
4.3447153846893025 0.0658603866910662 1.569620982310959
4.344704214601397 0.6218367228117101 1.5696056741765227
4.344711376423797 -0.9049390088915281 1.5696154891521104
4.344709126262277 -0.8713868734036506 1.5696124054006364
4.344700504715174 -0.3197664427004131 1.5696005899338976
4.344729772469289 0.7565445481131625 1.5696407001567032
4.3447485879810595 0.7620221198791165 1.5696664860221432
4.344720278170485 0.7559794240867405 1.5696276886205631
4.344717122684601 0.9844913544760077 1.569623364160225
4.344737808686377 1.0104527262027347 1.5696517134533399
4.344727213314657 0.5523051177535198 1.5696371929432003
4.344726891709405 0.03975163219944827 1.5696367521967622
4.34474241184596 0.5171991104023059 1.5696580218894345
4.3447272152607495 0.7219794847511709 1.5696371956102366
-6.3752546783560975 0.633329514891595 0.9485270014662103
-7.21820532770972 -0.9295241184910611 1.5636140059840917
-6.413108196728399 0.7710822897713667 0.9761480813526014
-6.925937483353035 1.0844753640955278 1.350351043270794
