# Exported By Aspose.3D 23.7.0
0.6762947405347717 -1.6811364487460756 2.4561280134607357
0.0809701899829961 -1.6811364430278857 2.413568922961688
-1.5110396515407214 -1.6811364277449785 2.2998219817567787
-2.5025157338720536 -1.4967455110806571 2.229015755470671
-2.5025165542410415 -1.2583631020499966 2.2290272712285253
-2.502516117882089 -0.7766952472105089 2.229021227683743
-2.502517791566823 -0.6754186416965131 2.2290446699462136
-2.5025167891149773 -0.45559958651480686 2.2290306669106505
-2.502515009731362 -1.1656566856068693 2.2290056632539197
-2.50251466676084 -0.41690304658789157 2.2290009628689393
-2.5025183184791233 -0.9654575909470784 2.2290520068263078
-2.5025170496661824 -0.49875187717605907 2.229034308373319
-2.502515933824439 -0.43704303073973483 2.2290186968342693
-2.5025208051195924 -0.8965161074109114 2.2290868247007873
-2.502520151732316 -1.03839295256821 2.2290776593608266
-2.502517715108991 -0.1278287000144267 2.2290436732440164
-2.5025195241410856 -0.03877866095712096 2.2290690084897475
-2.5025191501265986 -0.854909197333471 2.229063663287606
-2.5025176961639146 0.33935489001149427 2.2290434708163707
-2.5025207609949494 0.6497148643804211 2.2290864147828597
-2.502520101820669 0.26499662833380505 2.2290771358070853
-2.50251999067711 -0.17455364913507326 2.22907552093445
0.9122414435324477 0.6291851066353271 2.472938284536164
0.9122403649797932 -0.6645339837390671 2.4729532085618056
0.9122401542565055 0.40377092232252093 2.4729563018549903
0.9122397544114675 -0.4337298308814039 2.472961786459624
0.9122401514690786 -0.21818294720277515 2.472956257309086
0.9122383503100946 -1.083346651315786 2.472981354138006
0.9122394274438326 -0.6267722435992958 2.4729663374969215
0.9122396417530996 -1.2909804921535855 2.472963248300268
0.9122386889219873 -1.6427070330833564 2.472976539009526
0.9122409543768213 -0.44843431814009105 2.472944987070555
0.9122377547996383 -0.2250723997929031 2.4729898055581754
0.9122364648216796 0.02316565773156848 2.473007896343369
0.9122378867691345 0.178867286281712 2.472988012489221
0.9122359380319642 0.5195278933450671 2.473015337167443
0.9122405677203678 1.0498256992827697 2.4729506008882094
0.9122346998586939 -0.08838543334040438 2.4730325877462214
0.912237651129761 0.587474179280002 2.47299136592771
0.912236286218 0.6253241002872933 2.473010477387392
0.9122352300986685 0.2386668720246135 2.4730252092575777
-0.5641564911980924 0.17874133673327408 2.3672635196804013
-0.6648097364986162 -0.033508678383540574 2.3600730694206162
-1.0795115535756088 0.712442412190776 2.3304478858001563
-0.8048365678930383 0.6119911890774368 2.3500699816869206
-0.8756459456993566 0.5253694713704589 2.3450115212304654
-0.6075921180752338 -0.2531050338485134 2.3641605266761716
-0.7085285186570034 0.4254015805219565 2.356949968176449
-0.47540204460736324 -0.45254682250970374 2.373603835516699
-1.071674999395567 0.6357601090753104 2.331007699767072
-0.3787286351920355 0.07027948681078378 2.3805100177604115
-1.1085062753631456 -0.17911240462005018 2.32837645398091
-1.2284151417180982 -0.15312020220827022 2.3198104612438875
-1.3747307577396977 -0.17250339271247117 2.3093580287799
-1.0830976525584695 -0.853277794728224 2.3301914932886616
-1.5622214609957832 -0.3359820384983125 2.295964129398502
-1.1342567399988859 -0.6330312944693994 2.3265368427604742
-1.1610637495429827 -0.7206959271946323 2.3246218037645865
-1.6433540946227272 -0.6463813021404643 2.2901681707206
-1.980810753853004 -0.4198994543827061 2.2660611225132046
-0.598308607217102 0.5702619115457961 2.365325102864994
-0.3655137805262032 0.5495387591246876 2.3819553933046187
-1.0432646580948162 0.35099688446664873 2.3335385010695884
-0.8694920075154069 0.3926222903505731 2.3459523999370204
-1.1594806328139828 0.010419777904407956 2.3252362702298974
-0.6928659270272503 0.6806281942682062 2.358570173963754
-0.6914587445388465 0.2538129244215918 2.3586706422936907
-0.8678220779150954 0.2872749319952655 2.346071681470258
-1.0088395968412134 -0.02066344688334435 2.3359976933387228
-0.903631273052568 0.019609889606884853 2.343513524161721
-1.7297281826549937 -0.5696758915813853 2.2844991016116634
-1.5414928262171355 0.09224101125969417 2.2979462641652386
-2.0283349275819553 -0.030465583754811357 2.2631674383099725
-1.320277618271959 -0.7364433293953863 2.313749226397681
-1.3256362359070342 -0.2697743136269636 2.313366482557023
-1.328701423891119 -0.08300523070131971 2.3131475381160524
-1.7051482852186426 -0.7284626752703711 2.2862550080510466
-1.6754066158064704 0.09172241650921178 2.28837979039312
-1.3120464223943138 -0.1485050842082326 2.3143373219002
-1.6471383462517015 0.7204935155106664 2.290332268852545
-1.432335869855789 0.7204935134505881 2.305664928083325
-1.583322710863475 0.7204935149042424 2.2948457349059033
-1.3444358803327567 0.7204935125988492 2.3120042116309634
-1.5390218430694114 0.7204935144905857 2.297924478596543
-1.424270497429674 0.7204935133731571 2.3062412283794784
-1.3356832990449745 0.7204935125378651 2.312458103555611
-0.36440625457009035 0.7204935031900661 2.382031485747451
-1.7503120339669023 0.7204935164952426 2.2830043092432817
-1.7021967956840303 0.7204935160388892 2.286400836149211
-0.8281342575880768 0.7204935076689087 2.3486965548488827
-1.057108433832371 0.7204935098998095 2.3320925054828705
-0.7852884253247178 0.720493507266126 2.351694367573885
-0.6694274187707259 0.7204935061599469 2.3599273893664074
-0.785496856825477 0.7204935072874625 2.351535565426732
-0.40482359051619443 0.720493503597589 2.3789983928125014
-0.9403943425503245 0.7204935087480162 2.3406650216100795
-0.8754223011234381 0.7204935081572832 2.3450617025832656
-0.527003316980355 0.7204935048060968 2.3700037646584438
-1.95316479502424 -0.8733546857106507 2.268284475637091
-1.3079156261746383 -0.8733546919296991 2.314571332787842
-1.2547688370279175 -0.8733546924208457 2.318226817432778
-1.7411739491739853 -0.8733546877303582 2.283316666065134
-1.4709926563225688 -0.8733546903489298 2.302806053933107
-1.654019352832884 -0.873354688599854 2.2897881097811554
-2.023647868307959 -0.8733546850594391 2.2634376670363077
-1.5644816558613903 -0.873354689461022 2.2961975725929364
-1.6286076283902124 -0.8733546888515877 2.291661703100447
-1.6406415202340914 -0.8733546887255055 2.290723303342636
-1.139433104619982 -0.873354693520588 2.326411930500734
-0.9053988525654124 -0.8733546957545901 2.3430390634445173
-1.5129564981883457 -0.8733546899079345 2.2995238339633253
-0.5440613956047928 -0.8733546992087615 2.3687476163503556
-0.6166193106796017 -0.8733546985067642 2.3635228216604833
-1.7179309412079735 -0.8733546879410836 2.284885043921148
-0.774754253272214 -0.8733546970033861 2.3523335465270274
-0.61382496222092 -0.8733546985647878 2.363954676203795
-1.063653715595621 -0.873354694224026 2.3316474476458704
-2.0909152645012226 -0.6927754911136403 2.2584185806970027
-2.0909114446825368 -0.31582585039155575 2.258365160592523
-2.090918126397118 -0.343024475558512 2.258458689203931
-2.09090383952785 -0.48987152968714953 2.2582586784029712
-2.090920858191069 -0.8462518409818902 2.2584968619070227
-2.0909090367655137 -0.7918662705321242 2.2583313900241615
-2.0908998017503504 -0.7097638387310261 2.258202127067019
-2.090926636713385 -0.8195794991208767 2.258577754651481
-2.0909145184525095 -0.5423862626086458 2.2584081575317905
-2.090916250435482 -0.5369003074298453 2.258432402987769
-2.0909197825611425 -0.03833735026962275 2.2584819135281564
-2.090925220060784 0.4272961644191002 2.2585580915325907
-2.0909218515790813 0.633540274079379 2.258510966417172
-2.090934961523285 -0.20088372651737052 2.2586943704924005
-2.0909309186756353 -0.43087116185699087 2.258637746826885
-2.090921320741171 -0.11173263529770569 2.2585034354849998
-2.0909339282510264 -0.23442708301220988 2.258679901989179
-2.090921391052688 0.40489722964470826 2.2585044891364974
-2.0909325880601557 0.4643027492706046 2.258661235551942
-0.32254795440009953 0.4044374955383756 2.3845783579063764
-0.3225617605840978 -0.7059940140024894 2.3847714710315353
-0.3225483943920112 -0.7651587387711751 2.3845843598745753
-0.3225525215298176 -0.34398760049860266 2.384642189141427
-0.3225609607371306 -0.7224808555837381 2.3847602723640025
-0.3225444255094001 0.452679319794492 2.3845289661178106
-0.3225543847524438 0.1850481420229253 2.3846683420655355
-0.3225528656416744 -0.29940310009458926 2.3846470120932115
-0.32255266160070706 0.29970832075644754 2.38464423637404
-0.32255024013974554 -0.09231686341432724 2.384610287502523
-0.3225707220815274 -0.03960619974503873 2.384897005787197
-0.32255689024163836 0.5923107327859061 2.3847034692319755
-0.32257732328606026 0.22683175661649624 2.384989446852038
-0.32256852316091456 0.6880116403035901 2.3848663225235405
-0.3225781280411676 0.4126914752362348 2.3850007369816533
-0.3225604094354326 -0.003305076403987084 2.384752651736373
-0.3225784960022229 0.13869103554370762 2.3850058509756176
-0.32257568380155865 0.03916325846771522 2.384966471734321
-0.3225722744138586 0.5826297982324622 2.3849188193156214
-1.2618366737150872 1.0325756559605577 -1.6145780047385794
-1.3911961963956407 -0.3582102336697765 -1.6238193779433239
-1.0519922133724886 0.08172973627399915 -1.599587262703758
-1.5636785934681896 0.7939588855449122 -1.6361410216334584
-0.7978525358581217 0.7103509724329771 -1.5814319464693116
-1.0640259704754131 1.0429259671352316 -1.6004468011690847
-1.3556115201002634 -0.14409417977762348 -1.6212772508609306
-1.2321408687880435 -0.26825779521667537 -1.6124567704304102
-0.8035019218731349 0.6545355111627464 -1.5818355348399047
-1.0850770963392589 0.2275005248616081 -1.6019507611816948
0.02471066723259019 -0.5452768639896981 -1.5226698402446062
-0.04987473788668306 -0.3604456259337909 -1.5279980480194923
0.5778991734748689 -1.0635639093249456 -1.483151226125866
0.5564935452270976 -1.4272515820683218 -1.484680450386897
0.11870122772076763 -1.196639153517495 -1.5159554295491722
-1.1321871708551248 -1.604545562647796 -1.6053164571129972
-0.786854072299602 -0.8340517999168486 -1.5806464456692388
0.07695030253271651 -1.3784984146998571 -1.5189380568221602
-1.6341042335223435 -1.1924695704444164 -1.6411723558151425
-1.8203708061929398 0.7439792005995434 -1.6545788629886267
-0.5270693199823506 0.8359886124223339 -1.562187971465017
-0.4879529825864071 0.9653128000314672 -1.5593935609487335
-1.8912216925075416 -0.2481258318175513 -1.6596404423190199
-0.16032947782463614 0.4296494020249177 -1.5359888630640965
-1.7694370338796572 0.8849296881991682 -1.6509402369252744
-0.8926625494844084 -0.08871581590040659 -1.5883053469817914
-1.0689533714401347 0.735765721862996 -1.6008991009788018
0.25179231145904857 0.8754233998822112 -1.5065476443691372
-1.2621358598824772 0.13404894286941615 -1.6146997535677572
0.572563176584985 -0.2747520760534164 -1.4836325679601472
0.5434403484339083 -0.5244995102751736 -1.4857130782842791
0.08893998243459 0.03290019407012906 -1.5181816032060844
0.625515845779951 -1.4267229692301036 -1.4798498896449286
0.5020213460302017 -1.1116482581166898 -1.488672048109676
-0.08175870674903107 0.21619657424705907 -1.5303759525381984
-0.21324977517149746 -0.08332713173603482 -1.5397694524994425
-0.1312782228678947 -0.9577523371672854 -1.5339136857517028
-0.2999359507996189 -0.14076669619509025 -1.5459621477401737
-0.3049222330260225 1.1487878605805855 -1.546282115742354
-1.5969286621055199 1.1487878729851384 -1.6386061730220045
-0.05008026776293395 1.1487878581388047 -1.5281085402105126
-0.9455929149751764 1.1487878667322329 -1.5920673254260618
-1.5827840244750744 1.1487878728481082 -1.6375862911778243
-0.5931939287939643 1.148787863348864 -1.5668857371655043
0.3537552212545114 1.148787854262497 -1.4992581285646844
-0.47353014146688605 1.1487878622028669 -1.5583563601471642
-0.6655226426272148 1.1487878640412055 -1.5720386662886523
-1.236676908216066 1.1487878695248999 -1.6128524633249646
-2.105484575296893 1.1487878778658949 -1.6749324520791322
-1.7381616886181268 1.1487878743364561 -1.6486636993412256
-1.1187652237025625 1.1487878683853567 -1.6043711220616699
-1.5728989477533557 1.148787872752863 -1.6368774033745304
-1.5334883664114884 1.1487878723643477 -1.6339857786079803
-1.27551368004244 1.148787869896421 -1.6156176030953053
-1.6939064479263526 1.1487878739082815 -1.645476900560915
-1.584782924499454 1.1487878728635248 -1.6377010318192253
-0.9503892648822825 1.1487878667745866 -1.5923825520500223
-0.006913309425991776 -1.6811359138456592 -1.5250050673158229
-0.3531788600404181 -1.6811359105228794 -1.5497357051730973
-0.5442453782978975 -1.6811359086889297 -1.563385344900075
-0.3608265738071251 -1.6811359104485857 -1.5502886529831759
-0.3512986459129385 -1.681135910539475 -1.5496121877223077
0.20145210527402424 -1.68113591584501 -1.5101243867746441
-0.46503358911346565 -1.6811359094517093 -1.5577081624304265
-0.47996472386938505 -1.6811359093063318 -1.5587901719700903
-0.0966892693660315 -1.6811359129866401 -1.5313985354432214
-0.37418381394470845 -1.681135910321746 -1.55123269217199
-0.5602806380189002 -1.6811359085436006 -1.5644669936298559
-1.1000225854092576 -1.6811359033578606 -1.6030631873916144
-0.4228663493120022 -1.68113590986224 -1.554652680153411
-0.6181330050369267 -1.6811359079887025 -1.5685969644410693
-1.848774097539481 -1.6811358961706282 -1.6565560033729103
-1.8060237887105364 -1.6811358965807564 -1.6535035191302279
-0.44653031806306276 -1.6811359096331775 -1.5563575383286807
-1.539141122028778 -1.6811358991440153 -1.6344258097327407
-1.1450862954362406 -1.6811359029285498 -1.6062584432038967
0.6897803531706754 -0.3361978510374725 -1.4752017945888571
0.6897805824597512 -1.3643051025742805 -1.4752051423481418
0.6897804149977198 -1.20863534719529 -1.4752027772730871
0.6897786039664442 -1.0725586141051973 -1.4751774078937314
0.6897785338055231 -0.3392266910377815 -1.4751763272406668
0.6897801868849665 -0.38060812790300697 -1.4751994728626652
0.6897777679321397 -0.810633603574201 -1.4751656697641322
0.6897784022361906 -0.3642605711578566 -1.4751744888762996
0.6897783062080269 -0.5370262098580346 -1.4751731678717843
0.6897775261296961 -1.0464326335027305 -1.4751623166577654
0.6897836598036007 -0.28835638790365997 -1.4752480749206713
0.689782623532148 -0.800605534927356 -1.4752336378576056
0.689783127684438 0.8637231709492432 -1.4752404714421574
0.6897833772345945 1.0383968616639487 -1.4752439412149396
0.6897834534697873 0.3841995002999798 -1.4752450962641714
0.6897812970359383 1.046363108488161 -1.4752148212016845
0.6897818187197264 1.111371378534127 -1.4752221150777012
0.6897824913267032 0.9450445840302353 -1.475231552681794
0.6897813667040562 0.16351426503008737 -1.4752159150453334
-2.2230307750221217 -0.7352698056199463 -1.683266241988403
-2.2230288189156675 -1.2374818619198666 -1.6832936913460914
-2.2230291504156625 -0.8247451144825129 -1.683288995502991
-2.2230315130191416 -0.8538312792018152 -1.683255927321618
-2.2230295795659707 -1.677867609945647 -1.6832831028150743
-2.223029671325138 -0.31827218865091533 -1.6832816356823792
-2.223029819004352 -0.11814362022034222 -1.6832795415568285
-2.223030232284204 -1.3928939803286056 -1.683273927675444
-2.2230308874222686 -0.728818342205451 -1.6832646677269323
-2.2230315012676396 -1.450136651185411 -1.6832561719398622
-2.2230269823098423 1.0929238537240205 -1.6833190873282373
-2.2230279000707416 0.10273245608925541 -1.6833063734100133
-2.223027878984876 0.7356337867821587 -1.683306583537333
-2.223027435989287 1.1111467300866187 -1.6833127342047096
-2.2230290327399223 0.8086678585454057 -1.683290423282757
-2.2230267530621974 -0.15846301448574668 -1.6833224645071514
-2.2230271438094427 0.36652942253317716 -1.6833169242293335
-2.223026709563214 0.442036681620905 -1.6833229927302182
-2.223027598658424 -0.037629976575971696 -1.6833106114852439
0.38419160011158693 -1.1780407066021976 1.300382401173911
-0.13240732431095187 -0.8249301946845413 1.2634780041123994
0.09639078278679758 -1.3451065283340424 1.2798226586244767
-0.18067608899478632 -0.7965584108582243 1.260029816564744
-0.02327031822051745 -1.1641890623874396 1.2712744141443766
0.3408118360537141 -1.12019266292124 1.297283474706162
-0.0620341820137936 -0.916381118400025 1.2685052607600553
-0.04503805782694428 -0.8767801566437405 1.2697194237032776
0.27921185016396033 -1.3302454117692402 1.2928829083615763
0.09122250748898453 -0.9120516684511473 1.2794535090546246
-0.11280571810589071 -1.4631035494796165 1.2648782046525677
-0.30470414688314723 -1.4324287617898035 1.25116949863038
-0.6730574732226724 -1.2515326285643595 1.2248553471841652
0.22751447219747245 -1.6396181780740995 1.289189744478585
-0.5201484742345779 -1.2526659770190105 1.2357787566649698
-0.2900490884882426 -1.404976815302694 1.2522164204668642
-0.6260449954289371 -1.293543548767466 1.2282137871262533
-0.5935460282700676 -1.543024249463129 1.2305353928380005
-0.37348787918325543 -1.4847700212985102 1.2462557658591722
0.2936116338982938 -1.2026613019860843 2.311649053464144
0.2739933058705276 -0.8641515693367608 2.3102476180992606
-0.36295241308979254 -1.1575031770170137 2.264745881281303
0.08425845666655962 -1.176269144986241 2.2966934263538734
-0.08788737286844797 -1.0052335425051486 2.284395812013251
-0.503250000053827 -0.8215817678447961 2.254723442303308
-0.1844146856575073 -0.8571457570598 2.277500179035875
-0.3361732564548978 -0.8579828291757903 2.2666589528011976
-0.16819264726122277 -0.9437133431858593 2.2786590264101685
-0.18717179385116406 -0.8719191849211597 2.277303216620866
-0.8412435040156618 -1.3077252825893415 2.230578025688271
-0.7542341109634239 -1.072702396273109 2.2367937754282727
-0.5349190978427558 -1.304525538827688 2.252461021830537
-0.6218820290188033 -1.4286279480131596 2.246248606105764
-0.7630736565954307 -1.1154866003169026 2.2361622961985654
-0.41365289155579377 -1.4175194545414802 2.2611239398619465
-0.8802454367750879 -1.6431442635847642 2.2277917869324977
-0.5991051090108437 -1.2190668129160902 2.247875756466036
-0.6883863421746549 -1.25853716840941 2.2414977388231607
-0.1070072721610878 -0.7756008693925655 2.247949088167114
-0.483682478598882 -0.7756008621538014 2.1940727367487693
-0.7656829574087252 -0.7756008539055024 2.1326826625614066
-0.49750174805587866 -0.7756008515905077 2.115452723465162
-0.33968170439537243 -0.7756008431938924 2.052958767572646
-0.0793831254044316 -0.7756008260470881 1.9253392929428836
-0.6681679145563324 -0.7756008308078957 1.9607728205769033
-0.007373249587416253 -0.7756008670894967 2.230807910073395
-0.6630249540710729 -0.7756008345436693 1.9885772706118934
-0.21777295816288847 -0.7756008321576855 1.9708189765727238
0.2967900395522943 -0.7756008581080303 2.163961050933299
-0.21097323518646527 -0.7756007582506743 1.4207471526651474
0.22753260041615359 -0.7756008408993771 2.035881250624926
0.0029454660674415045 -0.7756008358767426 1.9984990086069812
-0.005754213599009128 -0.7756008115180856 1.8172034779342972
-0.0349799054068064 -0.7756008079236264 1.7904507964104743
-0.11815661473011457 -0.775600765597301 1.475426300139464
0.1696788387401586 -0.7756007689222979 1.500173439872903
0.07009390370600965 -0.7756008203686178 1.8830758254746647
-0.5199134229798057 -1.6811363673801067 2.07235242526994
-0.3786576905460492 -1.6811363321535238 1.8101695766593202
-0.35673044667066905 -1.6811363780733082 2.151939309481926
-0.4824416614357716 -1.6811363305480365 1.798220326518583
-0.8133327175494574 -1.6811363504558248 1.9463891308800267
-0.5496172776338514 -1.681136358173077 2.003826753054315
-0.5757840971388346 -1.6811363780473547 2.1517461448218294
-0.7350974020928454 -1.6811363048226609 1.6067526429440746
-0.42341069652989505 -1.681136363592897 2.044165148355285
-0.8225936172226687 -1.6811363435755822 1.8951811654029567
-0.27000841258673935 -1.6811362665678946 1.3220317660977066
0.08930006092059878 -1.681136299237676 1.5651849639891682
-0.6780090246066959 -1.6811362690763672 1.340701713915106
-0.37468020541317015 -1.6811363031595985 1.5943748758478058
0.16473972417137156 -1.6811362688908291 1.3393208011154227
-0.1336951821628118 -1.6811362621526413 1.2891701150971002
-0.49636707460913665 -1.681136286390642 1.469567631349661
-0.11767861135331756 -1.6811363071127632 1.6237973152449288
0.009153665833894875 -1.6811363133422903 1.670162162577031
-0.8597948809345579 -1.344049252097818 1.698278061824129
-0.8464842746887292 -1.2661963088883441 1.5119523651777542
-0.8410372586192361 -1.6304777678418874 1.4357034135142994
-0.8832645498676351 -1.6204427351005888 2.0268132227663695
-0.8503662284401313 -1.373471355194126 1.566293059544051
-0.8346307067640901 -1.5919537854845336 1.346022657162342
-0.8364998024684016 -1.4656702601371707 1.3721868151404994
-0.8550479239405432 -1.4788934195221257 1.6318287699335654
-0.8683544800082867 -1.316585560112687 1.8180978032861217
-0.833539008023031 -1.6152151661316576 1.3307407400415825
-0.8843253683606773 -0.9763010936381269 2.041662952685408
-0.8749645787403492 -0.8577819516712522 1.9106279343765256
-0.8796296661897228 -0.8633680064018325 1.975931173889078
-0.8815960311331696 -1.475059246599368 2.0034568355910043
-0.8706473386868189 -0.8793418587367283 1.8501939594377228
-0.8905690825004837 -0.8193007980534175 2.1290642859803866
-0.8826484629309788 -1.285149144797915 2.018189105100102
-0.8734770458712446 -1.0062307957517136 1.8898050000903714
-0.8933883810861236 -1.1671049498797734 2.1685295943818383
0.391840204432808 -1.6758139920317459 1.4796760497391963
0.3712508325381313 -1.4101864579775374 1.767892054431425
0.3878976720067141 -1.582034935003994 1.534864768887665
0.38556939440149296 -1.5400688904292683 1.5674566762864164
0.38187986652999995 -1.436336352273904 1.6191037660105163
0.3949060538381438 -1.1512784107189629 1.4367594755649415
0.39489584390964183 -1.5194418572134434 1.4369023476242528
0.374905723186691 -1.6225219138702025 1.716729811957018
0.3977956800940369 -1.495278515196841 1.3963096071916818
0.37464184146427715 -1.6599383911580887 1.720423699425228
0.3793505955041454 -0.7939228797150657 1.6545093179849035
0.36703352360987407 -0.8108098782786324 1.8269272422775387
0.359763692524973 -1.193653318762244 1.9286923841310886
0.367405916060245 -1.070076471685667 1.821714350465792
0.362706089238232 -1.2078316234449706 1.887503863982775
0.3698067236957824 -0.8888301829435501 1.788107176764128
0.36351539361192864 -1.1353911532652607 1.8761749975618036
0.3671776825602082 -1.058626693824255 1.824909230396212
0.36536106334396323 -1.0749477098590112 1.8503387881917404
-0.8411824370981182 -1.46537500914745 1.2956209932457516
-0.7804076637574542 -1.588196982697451 1.3714091386604486
-0.8350397326550514 -1.3027846150507092 1.3032811716553365
-0.8690369893164535 -0.9110328406655394 1.260885515496434
-0.7966857473115301 -1.0143681882404727 1.351109904642648
-0.953307101286152 -1.1981383131724015 1.1557978469779038
-0.8514969525515407 -1.1106514620660566 1.2827584973816173
-0.8976572485207345 -1.2960542709317344 1.2251950494792032
-0.9004061861211694 -1.3226556501725621 1.221767029369438
-0.9257645091598548 -1.2999872725266508 1.190144360922399
-1.1257700457857507 -1.3005499637996152 0.9407308104396793
-1.1010088007815557 -1.2702833652612628 0.9716089098489368
-0.993121613976214 -1.3032227675567443 1.1061478124880333
-0.8962762943854629 -1.4114595535535797 1.2269171296696229
-0.9402167889327093 -1.5588071024583552 1.1721218530180013
-1.1029399193859306 -1.6463994124839867 0.9692006902432059
-0.9960932076848801 -1.5457156697249155 1.1024421038054506
-0.9622310324684042 -1.5438341839190146 1.1446693618018469
-1.1040811116042588 -1.5813336401061784 0.9677775943670057
-1.890253578467465 -1.145270586186248 1.874227226379479
-1.9285258353010795 -0.8532067889321658 1.8265004895525285
-1.770243005527115 -0.8304854088302798 2.0238844411119925
-1.8032614072972448 -0.8254088473382408 1.98270939757687
-1.715455570710813 -0.976363043722726 2.092206173328303
-1.916940918652862 -1.0217227869996635 1.8409472429409557
-1.8587807939117669 -1.1502610011259453 1.913474833898528
-1.7961846904205911 -0.8401085290531756 1.9915342967081187
-1.7562599797937468 -0.9455594600298385 2.041321723399772
-1.7910619553144866 -1.1732596797124106 1.9979224728534142
-2.040030306759679 -1.2696270108910868 1.687450652372098
-1.9782843284701075 -1.0919123426854602 1.7644499630112227
-2.0392871936414982 -1.2662977771309447 1.688377339571618
-2.0118885912118394 -1.3397911883115563 1.7225442973894092
-1.9596522930090745 -1.209037118799471 1.787684714641638
-1.8972035264590141 -1.559455302989189 1.865560354636108
-1.9527291787725458 -1.1017750549901804 1.7963180825630347
-2.0030977501265963 -0.9734073588937003 1.7335068175714887
-1.9708542997543192 -1.671154651103525 1.7737153778952224
-1.9455593533306181 -0.8175429066589843 1.5932302268015868
-1.796167463351731 -0.8175429161610843 1.6639520346065477
-1.5111301165859359 -0.8175428823007419 1.4119377808854594
-1.771829749780862 -0.8175429013073103 1.5533990248770417
-1.73074403674822 -0.8175428973195097 1.523718799654547
-1.7699662951817214 -0.817542955806426 1.959022624732812
-1.496561306459737 -0.817542906213079 1.5899114630323763
-1.6776953170821098 -0.8175428843481145 1.4271758751233994
-1.694664076275502 -0.8175428991884512 1.5376288751796987
-1.5897043051372914 -0.8175429177707063 1.6759320581858328
-1.2064065727095972 -0.8175428884637277 1.4578073788079386
-1.0189226930023818 -0.8175428968669811 1.520350740139983
-1.1309822920541432 -0.817542867929602 1.3049768986493757
-0.9476617435704705 -0.8175428699109495 1.3197235838532542
-1.2659997188021206 -0.8175429036311596 1.5706948668845935
-1.0097179927226412 -0.8175428566194295 1.2207980484430105
-1.4078898657776442 -0.8175428980326811 1.5290267597283043
-1.6579083691693517 -0.8175429705792102 2.068972847454426
-0.9244794409837562 -0.817542888446213 1.4576770207766285
-1.5852506838999245 -1.6811365117731412 1.372543035269923
-1.426832276472037 -1.681136516872083 1.4104932141485838
-1.757382716568384 -1.6811365654575448 1.7721029313553753
-1.6964176885443918 -1.6811365340954478 1.5386825088550062
-1.3930370849746372 -1.681136484290196 1.1679941905600233
-1.585591163192932 -1.6811365183118956 1.4212093876316296
-1.9405143012587667 -1.6811365514136773 1.6675778602018583
-1.757097033931585 -1.6811365313315796 1.5181117140295146
-1.6701668904674645 -1.6811365332953456 1.5327275442029047
-2.018112868756165 -1.681136553501526 1.6831172056373962
-1.0576172638551864 -1.6811365159263634 1.4034544524913941
-1.03633918795879 -1.681136485673247 1.178287900749572
-1.3511809560775825 -1.681136530607564 1.5127230433649757
-1.1233398011295677 -1.681136459632065 0.9844697486350621
-1.2019115496208854 -1.681136528353648 1.4959476949633215
-1.1171436378094035 -1.6811365150959827 1.3972741333163756
-0.9384540955807594 -1.6811364883298077 1.1980600328197184
-1.0554266036947773 -1.6811364913922597 1.22085311490234
-1.1867259202436857 -1.6811364907115958 1.215787100823173
-1.378781713538015 -1.2998505591501235 1.1153158165188355
-1.5703915517134048 -1.4825028894436072 1.2689683852014404
-1.6795560045454603 -1.3794237147276558 1.356507752067572
-1.3380474408476424 -1.4468529846650944 1.082650842339782
-1.36907627260152 -1.374033441926541 1.107532979832209
-1.4657700912681246 -1.3556010736426323 1.185072090573196
-1.412625397279432 -1.3975554640621468 1.142455170662986
-1.6779386409531896 -1.3717071842128667 1.3552107836350207
-1.2947390102555187 -1.362847697101318 1.0479216730569443
-1.4228987631992926 -1.3267562227063767 1.1506934279071965
-1.7415031209426655 -1.3319360372273 1.406183365753885
-1.6891700131672325 -0.9826500369688631 1.3642173122071035
-1.9023136498467486 -1.3425489472411185 1.5351378847171726
-1.9664400511041666 -1.5191710561259548 1.5865610443736944
-1.889022790347361 -1.3970279795390874 1.5244798911077022
-1.6895271342151645 -0.9886363076453167 1.3645036880086732
-1.8252387328615085 -1.1285732232077794 1.4733312704464598
-1.8100511429392374 -1.220372261472546 1.4611522771238157
-1.7752578178237441 -0.9874612628254988 1.4332514204371096
-1.0396061630763889 -1.3396509510570265 1.5858741112415737
-0.9815943009690953 -1.6410758001521317 1.5393541574885796
-1.1089600432275786 -1.1896804482905499 1.6414892482185375
-1.2151770780547775 -1.4986716460629128 1.7266650150075114
-0.8577059960595356 -1.38250732829579 1.4400077312090953
-1.1477576866693646 -1.645231350819026 1.6726011517337307
-1.0027999932555711 -1.0592417771412137 1.5563591537923027
-0.9783091408370762 -1.335475592927671 1.5367198172546488
-1.1409845762784965 -1.3323298933641177 1.6671698130813286
-1.076043997161261 -1.5385501752531785 1.6150937099393683
-1.1678207242429317 -1.140893644341455 1.6886898388511853
-1.4039507274799654 -1.1423529649266568 1.8780433065185274
-1.571830008964204 -1.2135217241873655 2.0126662745351664
-1.41725424455792 -0.8249425828726347 1.8887114856112641
-1.1334471777855184 -0.8196614828051186 1.6611256159917924
-1.3055979276992582 -1.1499896520834083 1.7991738545237252
-1.5209253440111448 -1.076830564895646 1.9718456656736718
-1.455423407732921 -1.2273487612211051 1.9193194157630962
-1.3659873755721492 -1.1782355663340884 1.8476003582470826
-1.2810929406116307 -1.37922112263128 1.1915240187704628
-1.2382300552958623 -0.8698172876699033 0.5915206751275979
-1.2617216208776116 -1.4339099896044707 0.9203603263044855
-1.277091654949687 -1.2184745680532358 1.1355132274653734
-1.2363454817929693 -1.079556307697919 0.565140002626887
-1.2558137529942899 -0.9934993456672783 0.8376608457234886
-1.2863621994848664 -1.051462084726657 1.265284223371255
-1.2373486790284371 -1.0355395397930358 0.5791829680813655
-1.232080138126729 -1.1469894166118342 0.505432842855518
-1.2191143875010297 -0.8217127242994626 0.3239356644670157
-1.241538808044414 -1.5259666480305456 0.6378371828821486
-1.226398096556648 -1.4755685409463921 0.425894421752142
-1.1430749750015818 -1.384312146405587 -0.7404796182786921
-1.232661073882472 -1.589461498693169 0.5135648406172323
-1.1511017549283649 -1.3091863865638844 -0.628119105417711
-1.1907250194857086 -1.6689538350606798 -0.07346461388411937
-1.2888326081973926 -1.6616540449464117 1.2998654264737173
-1.1261985164319723 -1.2228366524496954 -0.97671970620451
-1.2623760498046759 -1.6642438442351706 0.9295211249725895
-2.3046892485404737 -1.2045115069706485 0.9308360006303331
-2.222085610714957 -1.0528704429639284 -0.22546655127632184
-2.2545700420823938 -0.8989666761456301 0.22925716605800603
-2.2601454069208975 -1.0895675142651977 0.3073022347557741
-2.210954048910334 -0.9161879924644986 -0.38128840573755474
-2.211264413236447 -0.8404604994901224 -0.3769438524159364
-2.2227820404104968 -0.8469962598429264 -0.2157177586751208
-2.313528914393839 -1.1270241761687836 1.0545754568263987
-2.285058713273787 -1.0328821269615365 0.6560437866695493
-2.2545327141652454 -0.8592514508540035 0.22873464759546963
-2.2050359945314266 -1.1366796546015498 -0.46413056775972883
-2.2029886440162287 -1.3537147775853362 -0.49278982706323604
-2.1644364274680976 -0.8688057766506976 -1.0324515532710221
-2.2036017131426417 -1.3661696856708865 -0.4842079620475187
-2.215566914478033 -1.3275309181050012 -0.3167166278277056
-2.2351525884986647 -1.3782557096480912 -0.042552374495666595
-2.1882549602772423 -0.9998656342886969 -0.6990348899664669
-2.183103819937656 -1.1684508545338472 -0.7711416258522835
-2.2426606460809984 -1.2010818363139177 0.06254697088659687
-1.7730829201331406 -0.7358861740971598 -0.605354047217024
-2.206849244414736 -0.7358863457554183 0.6722564211748684
-1.943495165417093 -0.7358862572817463 0.01376850147240069
-1.8030120309059894 -0.7358862881773871 0.2437172059878349
-1.9777421046053347 -0.7358863108219282 0.41225499211418903
-1.9936560594524053 -0.735886202411911 -0.3946142727622789
-2.2500424648258606 -0.7358863103486907 0.4087328005101333
-1.9424446886317404 -0.7358861214236654 -0.9973899931427087
-1.8403156838153623 -0.7358861920206876 -0.4719536101973497
-2.0331276145113324 -0.7358861426004158 -0.8397766155981331
-1.3441784615130814 -0.7358864196289934 1.22207938787466
-1.223174016621626 -0.7358863034812747 0.35762030170929116
-1.972635229022094 -0.735886344460916 0.6626217569779684
-1.317161314674773 -0.735886357826074 0.7620953616333577
-1.6686443867978822 -0.7358863083891789 0.3941486325842664
-2.0861034568607404 -0.7358863966576893 1.0511095849776717
-2.2438853900702647 -0.7358864306576272 1.3041628130059417
-2.151447231022412 -0.735886408531643 1.139484520781828
-1.8065137226128765 -0.7358863486322349 0.6936678636631342
-2.1981472464894787 -1.6811362280400723 -0.5174014266419474
-2.1480946073572587 -1.681136317604421 0.14920413354226855
-1.9719125978908743 -1.6811362760805926 -0.1598475749080723
-1.492530398332283 -1.681136162098372 -1.0081893870844811
-1.9903519500247624 -1.68113631138741 0.10293243952120527
-2.2285681071191425 -1.681136282378871 -0.11297102800542483
-1.4669894895248183 -1.6811362462663202 -0.3817479184597664
-1.879169807994164 -1.681136233715203 -0.4751628162571596
-1.5262934132285877 -1.6811362414855024 -0.4173303752556031
-1.8639064378918608 -1.6811363066363594 0.06757153047673513
-1.6556141516617249 -1.6811364024850626 0.780950004539573
-1.384681095853236 -1.6811363376110837 0.29810883475276406
-1.4488200348872176 -1.6811363826834294 0.6335712891815046
-1.4389938544428236 -1.6811363944915003 0.7214558748978945
-1.7330874694844265 -1.6811363757457518 0.5819358496516445
-1.6840353061147972 -1.6811364031789218 0.7861142295493673
-1.7517829049935265 -1.6811364492609355 1.1290913961419156
-1.3633074876286075 -1.6811364896875878 1.4299770907349032
-1.1737410178666876 -1.6811362176350184 -0.5948437008419755
-1.606193205403769 -1.6339348069661281 -1.0313558844858344
-1.4782626628198434 -1.5291892422842923 -1.0222167996367222
-1.4282463197391837 -1.634206111561515 -1.0186437584768357
-1.3923411476790013 -1.212084233466298 -1.0160787168712528
-1.5103558538708834 -1.2179337671915609 -1.0245094233406584
-1.5767017255519074 -1.6231340612788228 -1.0292490779183814
-1.781325455211459 -1.4655489939520872 -1.0438669166400185
-1.4331579614602266 -1.3098743524255907 -1.0189945915585845
-1.69748369211473 -1.6698874206917838 -1.0378774767523564
-1.2682413161218362 -1.3447001488343566 -1.007213321310083
-1.7376493197387526 -0.8363350108185093 -1.040746707028341
-2.0779294812272386 -0.990831201545804 -1.0650555786405718
-1.7830756087683195 -0.8809007022351418 -1.0439918651286002
-1.8496323836357185 -1.027799326613481 -1.0487465514513965
-1.9445886665642824 -1.4334907422689258 -1.0555300696481689
-2.003196283295493 -1.0368879470983594 -1.0597168129342698
-2.0525912336317664 -1.2551688077141332 -1.0632455066293462
-2.0795269182292575 -1.6002808096628007 -1.0651697778389098
-2.153339031396915 -0.8822298264184959 -1.0704426530290099
-1.5667298449791274 -1.2135015621301457 1.4175285076793016
-1.7591057606649831 -1.450562546673074 1.4037855722690922
-1.747802155400936 -1.2071909550141555 1.404593109153232
-1.7494226394705266 -1.5698194436090644 1.404477296686723
-1.408134500854108 -1.4497970633521173 1.4288581712903412
-1.7156586251330364 -1.680043948223699 1.4068893072657613
-1.7955262642350076 -1.31977600816525 1.4011837908254277
-1.4001475390675575 -0.9065062923122982 1.4294288149066523
-1.632595658245846 -1.4906867367799874 1.412823164596994
-1.6252812104080432 -1.5627798154849708 1.413345682644249
-2.073089341196301 -1.0998550123614381 1.3813553372467984
-2.0670679004042407 -1.0547376000212836 1.381785501521595
-1.9213481753142183 -0.9987691187324658 1.392195399081028
-1.802317990293359 -0.909520324004575 1.4006986602837925
-1.9620111738026431 -0.8903424661227848 1.389290540319966
-1.8494761973337992 -0.9226608103289363 1.39732978207101
-1.7460640036261816 -0.9717154205237313 1.4047173104523265
-1.9138263127827235 -1.168736306969793 1.3927327212181313
-2.2714739500009538 -1.0235164428428307 1.3671831963968768
-1.2965751399557732 -0.8929370803071487 -1.1476852146217544
-0.9599064660744842 -0.8629377559583715 -1.1236342996764788
-1.140361271477556 -1.15431061807199 -1.1365256553791225
-1.3637925213505002 -1.1866199298449533 -1.1524871242196115
-0.9592154339750273 -1.0922913549022768 -1.1235849645940177
-1.1244562288452142 -0.8885059908297078 -1.1353893964496853
-1.1690515336135245 -1.2140338613867325 -1.1385752361504475
-1.1287383542904337 -0.9549287694247057 -1.1356953115234465
-0.8501644255377169 -0.913275628772928 -1.1157945629611379
-0.8851975833992886 -0.8108235116191507 -1.118297245241348
-0.215105858879299 -1.111949395562985 -1.0704273244554532
-0.3115050700536251 -1.2882845492680108 -1.0773139076052298
-1.0385247608258117 -1.26077951303759 -1.129250680843343
-0.4425973480234057 -1.1375846888618664 -1.0866788474610107
-0.3300256948291392 -1.2339893303231244 -1.0786369752830482
-0.5917758894043934 -1.309744476450519 -1.0973358757948561
-0.23639730462011943 -1.1072634493569664 -1.0719483404944152
-0.846697774140931 -1.239097402287628 -1.1155469563614542
-0.9741775713141869 -1.2174341824147752 -1.1246538454282506
-1.3552739404226282 -0.9549225198245163 -1.621303515146347
-0.4126368213771361 -0.8506825673552729 -1.5539634628960846
-1.1670294951672329 -0.8418449299606376 -1.6078557077046582
-0.9584628963775632 -0.817237150974303 -1.592956139703452
-1.37738093247127 -0.960281272050628 -1.6228827934695187
-1.231307533743811 -1.0605194388800294 -1.6124476266775785
-1.0040777282192592 -0.9150405658851009 -1.5962147817043288
-0.6464734227037132 -0.9837817741853828 -1.5706682819780229
-0.5336021580348576 -0.8642381501761343 -1.5626049771639499
-0.8252651834750927 -0.840548088482858 -1.5834407748325314
-0.5475790042955193 -1.2954583975220353 -1.5636035119738594
-0.3715990063476643 -1.1893018663452213 -1.551031852108599
-0.44521029055246614 -1.119600698112939 -1.55629048002137
-0.6162650235754675 -1.1751411613831497 -1.5685102823877997
-0.6540783642961229 -1.0273733949399728 -1.571211569069401
-0.7236932012615477 -1.2905861979489317 -1.5761847438206007
-0.4419820765688058 -1.143961686554928 -1.556059866391405
-0.26768229496764484 -1.223546034825238 -1.5436082626486376
-0.6360126072183523 -1.2597427516606787 -1.5699210201211367
-0.1474884919372007 -0.7793309136368649 -1.4121311796392875
-0.1872703999473675 -0.7793309130365744 -1.4165989948047775
-0.35353449446790336 -0.7793308959188624 -1.5440019421154778
-1.0249141244571927 -0.7793309065813983 -1.4646432941615226
-1.113191676566863 -0.7793308958191658 -1.5447439594781198
-0.38504876725142917 -0.779330911799116 -1.425809095347108
-0.23534166722321803 -0.7793309190630178 -1.3717456495031326
-1.2040912410296711 -0.7793308926250558 -1.5685169392739788
-0.21415068544941973 -0.779330919663505 -1.36727636946198
-0.8263183129330541 -0.7793309116954383 -1.4265807424027224
-1.339654191028021 -0.7793309078357518 -1.4553074465148936
-1.4403031003504227 -0.779330916725166 -1.3891457089595394
-0.9552244889827072 -0.7793309424136167 -1.1979528481821822
-1.2803106156315331 -0.7793309289238951 -1.298353549336924
-1.2260343674769238 -0.7793309308010787 -1.284382130266037
-1.067851409036884 -0.7793309337612222 -1.2623505058065976
-1.1754501378218656 -0.7793309106103861 -1.4346565211889464
-1.439874555529848 -0.7793309291921151 -1.2963572528435456
-1.1558712145791339 -0.7793309421810661 -1.199683664746574
-0.5253243173238731 -1.3783001666947259 -1.329735624906053
-0.5987569906810418 -1.3783001451985994 -1.4897260405661814
-0.19304045990078433 -1.3783001812927411 -1.2210861648651818
-0.24892865099476058 -1.3783001419746026 -1.5137214622547002
-0.37282197817119556 -1.3783001708831126 -1.2985624859388674
-0.7146360041381319 -1.3783001535291253 -1.4277239726296038
-0.3757221782096777 -1.3783001677706486 -1.3217277954572717
-0.3346555892093091 -1.3783001655890876 -1.337964619402894
-0.47481484087337195 -1.378300149125527 -1.4604988802606553
-0.32473444012780384 -1.3783001747216437 -1.26999323755681
-1.368277195430645 -1.378300175555525 -1.2637868614240828
-1.4223380524832678 -1.3783001723899444 -1.2873475046371765
-0.9363525113980753 -1.3783001679389724 -1.3204750030881671
-0.7219437730932843 -1.3783001711782656 -1.296365734388033
-0.9313353484103821 -1.378300172959293 -1.2831099827654115
-0.7152302356543593 -1.3783001844428397 -1.1976407503306934
-0.9399126492758141 -1.3783001792007044 -1.2366566840363564
-1.2411392567099209 -1.3783001765313685 -1.2565238987471292
-0.6514268637054361 -1.3783001799717511 -1.2309179708722677
-0.14450066044585907 -1.348951955760414 -1.4251510978654056
-0.1657993302836871 -1.3226113540567606 -1.1270086712777991
-0.1442452646159138 -1.3093097960406848 -1.4287261670464202
-0.15270334133021313 -1.1505847028468297 -1.310328541309687
-0.14928886895172722 -1.257218010167403 -1.3581249239595912
-0.1516967339242391 -1.225005510496693 -1.3244192139351698
-0.16591664666326278 -1.157747127049744 -1.1253664343812029
-0.16072515044622315 -1.3009237176177928 -1.1980379055530674
-0.1543156958209264 -1.1160785609323 -1.287758522755494
-0.16924475258567528 -1.178330492756967 -1.0787790412471403
-0.14792100443577527 -0.8248952897965902 -1.3772724673099797
-0.1426297194804943 -0.8907816190010333 -1.4513407879217344
-0.14212275967941324 -0.8797392848870992 -1.458437296437708
-0.15182427491179107 -1.0283804598592048 -1.3226338469600858
-0.1497164767223218 -1.085649779467991 -1.3521391742024047
-0.15285430537485611 -0.9855465588927343 -1.308215298619436
-0.14489501909381042 -0.8377470660348041 -1.4196307293803088
-0.14391137845987068 -1.1975597857396378 -1.4333999475478298
-0.1407066700317663 -1.1512100164347108 -1.4782599979902564
-1.4601086918837436 -1.1405439740726826 -1.270432532944442
-1.4637606175082556 -1.0035897113271464 -1.2193122350717402
-1.4669282325809543 -1.1255193766398914 -1.1749714339170958
-1.462311625887427 -1.2083915012832838 -1.2395954951144694
-1.4535319237996243 -1.2658094869485812 -1.3624952742247816
-1.4660794294995023 -1.1706330217042467 -1.186853130681357
-1.4612928623859978 -1.3210410524263265 -1.2538563359795274
-1.4668367295597928 -1.0048842185290847 -1.1762522926484482
-1.4527548075021819 -1.2718750178293967 -1.3733734818796097
-1.463058205514936 -1.1735146888158126 -1.2291447411169278
-1.4371620299677048 -0.8269331830915356 -1.5916437888193604
-1.4478056795792316 -0.9817514332214018 -1.4426521820014564
-1.4468195158693138 -0.8111411232252449 -1.4564566473510117
-1.4352033571146858 -0.885608721820091 -1.6190616342864506
-1.4410575828961543 -0.9697009933180217 -1.5371131918623018
-1.450418997014927 -0.9895205132693707 -1.4060705186312463
-1.461563464069055 -0.8624806165227619 -1.2500683457281117
-1.446154548005082 -0.8869740177794052 -1.4657649914311504
-1.4386073732181561 -0.8316653110454104 -1.5714116274418801
-1.1200975324257918 0.04248273058303468 -1.3833734586012125
-0.9970425601793249 0.0402717368187675 -1.3745826653782052
-1.3663026915536844 -0.036778791147678964 -1.4009618582280676
-1.243891395013517 0.08979344101918557 -1.3922170305673147
-1.1057692808502249 0.0570689979762276 -1.3823498758888082
-1.5713818910388904 -0.01984108124399874 -1.4156122911604776
-1.5811872806427458 0.048282628759563656 -1.416312758825399
-1.3376618545970844 -0.022826023998755354 -1.3989158140088085
-1.2895133904072171 -0.2024455072669777 -1.3954762111261947
-1.6012131438808361 -0.25388107509853713 -1.41774340580702
-1.061257658213539 -0.24533143969452978 -1.3791700979655381
-0.5334240124440478 -0.014561066058675047 -1.3414627195179525
-0.792236754744249 -0.38888795752627126 -1.3599518185387585
-0.7678104740515059 -0.10777295515016033 -1.35820681763441
-0.4130638505764451 -0.4262531845479756 -1.3328644930100435
-0.5430975897163195 -0.07501129141771855 -1.342153788056702
-0.6804297506219844 -0.2064461414806969 -1.3519645321593488
-0.5188050251323408 -0.057162156738459 -1.340418374927583
-0.9510054346033858 -0.4310611855513165 -1.371293931367592
-1.637752968289723 0.35908283081709963 -1.5005573806237034
-0.895822597119444 0.21216846001070508 -1.4475554242529014
-1.5869285471804466 0.3379714321475371 -1.4969265915987118
-0.933462554747281 0.008815149965270549 -1.4502443725474454
-1.604276562000184 0.2667240352880525 -1.4981659075844853
-1.3797398299436756 0.42509570153947984 -1.4821254450855863
-1.4700454541370562 0.02989152342759749 -1.488576745797863
-0.6044626479020401 0.4121282306567873 -1.4267412432988895
-0.9747636586460621 0.06728854013208599 -1.4531948304048246
-0.5866253329739046 0.3840832405337199 -1.425466986062951
-0.2643862005653139 -0.4509127231806479 -1.4024469989795125
-0.43832915785133225 -0.2725599962095718 -1.4148731012739475
-0.2727123259569063 -0.21050149593407902 -1.4030417679104954
-0.35662357882555074 -0.10280012949798278 -1.409036200348532
-0.8758377326172668 -0.05525904689386813 -1.4461277826660621
-0.20690803031890326 -0.3838823071575797 -1.3983408679912843
-0.44462769895153686 0.2554309422476973 -1.4153229851244622
-0.777119591175417 -0.35787093855075114 -1.4390756028230411
-0.2856322797442119 -0.43851647997451354 -1.4039647734083684
-1.0837906159213113 0.4715490720232331 -1.4394930763346712
-1.1884130317165675 0.4715490729434048 -1.4463416892627257
-0.2086231845873635 0.47154906137858105 -1.3602675321098716
-0.20826327568002345 0.47154906156372506 -1.3616455139281305
-0.9641421288113771 0.47154907252555206 -1.4432317132691022
-0.902819226942927 0.4715490697907483 -1.422877237545835
-0.7481497786400604 0.4715490714175099 -1.4349848266011864
-1.3962669100757417 0.4715490758877414 -1.4682556672381282
-0.9315360975823883 0.4715490691134356 -1.4178361642551414
-1.01113387022056 0.47154907104148047 -1.4321861314678093
-1.2431523454933846 0.4715490709894872 -1.4317991580430265
-1.279846449810834 0.4715490671060849 -1.4028959438526878
-1.4240652285337143 0.47154907399154955 -1.4541427745717752
-1.0843144555405337 0.4715490698709334 -1.4234740357625544
-0.9270642093318078 0.47154906741175917 -1.4051710027927546
-1.0951119797095892 0.47154907077611413 -1.430211074635599
-1.1303926313553638 0.47154906477695463 -1.3855607962199845
-1.3129964385378678 0.4715490674228875 -1.4052538280445297
-1.1076464747104313 0.47154906849667677 -1.4132457793956976
-0.4776408133205382 -0.46815470764158157 -1.3644306548709533
-0.7746683428992274 -0.46815470055702685 -1.4171592645221247
-0.46202470185164246 -0.4681547035555234 -1.3948421866579155
-0.4477383697732686 -0.468154702214393 -1.404823893371261
-0.2639705679002684 -0.46815470911650403 -1.353453167541984
-0.5100881721949473 -0.46815470243275004 -1.403198714871608
-0.19613513044393527 -0.46815470365698114 -1.3940870617978005
-0.3603940229569671 -0.46815470692044514 -1.3697978966150623
-0.23366902648696353 -0.4681547073856048 -1.3663358276919573
-0.6802890889082971 -0.46815470059140024 -1.4169034316230802
-0.8435246660017799 -0.46815470363765926 -1.3942308702440434
-0.8418007828492944 -0.46815470506913825 -1.3835767217633117
-1.0121744347153734 -0.4681547040904237 -1.3908610549060443
-1.1424445297053973 -0.4681547021228259 -1.405505404891603
-1.2242554739655374 -0.46815470028467415 -1.4191863184477456
-1.3522152241546594 -0.46815470090159345 -1.4145947394326068
-1.4662376045453924 -0.4681546975108402 -1.4398312872621841
-0.659518629620869 -0.46815470866264564 -1.3568311245056293
-1.3564005169966005 -0.4681546991700943 -1.427481864479495
-0.13631528732888665 -0.30090950220318935 -1.3576866501430902
-0.13633021234174914 -0.15399956468167797 -1.357477707565689
-0.13835060788541875 -0.4151248946650163 -1.329195906227347
-0.13861782838013503 -0.03872699702185261 -1.3254552582535888
-0.1378257322707641 -0.2653874254103876 -1.336543183187581
-0.13936686720077396 -0.06846919347911912 -1.3149700909346032
-0.13901403520090805 -0.16157625692576805 -1.3199091050850127
-0.13939301411602523 -0.017124601770249596 -1.3146040751213546
-0.13587112048655048 -0.14720326742586679 -1.3639041516090649
-0.1349103639153958 -0.36110754640740095 -1.3773530123228643
-0.135944807795351 0.3258909929349842 -1.3628726007101892
-0.13645226777309838 0.10248105461254078 -1.3557691206612732
-0.1358795244357528 -0.09140026440115982 -1.3637865042179076
-0.13504534361176435 0.39060580378878346 -1.3754634428454104
