ply
format ascii 1.0
comment Created by Open3D
element vertex 1823
property double x
property double y
property double z
end_header
3.41895 -1.68114 -3.5709
3.41779 -1.68114 -3.67369
3.41854 -1.68114 -3.62572
3.41884 -1.68114 -3.61095
3.41887 -1.68114 -3.58266
3.41871 -1.68114 -3.59489
3.41955 -1.68114 -3.54341
3.41725 -1.68114 -3.72783
3.41585 -1.68114 -3.84948
3.41732 -1.68114 -3.73652
3.41331 -1.68114 -4.06182
3.41697 -1.68114 -3.7432
3.41414 -1.68114 -3.97828
3.4142 -1.68114 -3.97638
3.41452 -1.68114 -3.94402
3.41342 -1.68114 -4.04127
3.4147 -1.68114 -3.93115
3.41686 -1.68114 -3.74252
3.41591 -1.68114 -3.83343
3.41994 -1.37431 -3.51551
3.41964 -0.998547 -3.51551
3.41976 -0.741886 -3.51551
3.4198 -1.13534 -3.51551
3.41954 -1.25198 -3.51551
3.41973 -1.02018 -3.51551
3.41956 -1.61176 -3.51551
3.41967 -1.21605 -3.51551
3.41989 -1.6279 -3.51551
3.41967 -1.31818 -3.51551
3.41998 0.129755 -3.51551
3.4198 -0.763677 -3.51551
3.41994 -0.724636 -3.51551
3.41988 -0.390949 -3.51551
3.41984 -0.598683 -3.51551
3.41983 0.351907 -3.51551
3.41998 0.15457 -3.51551
3.42002 -0.161931 -3.51551
3.41998 -1.3851 -3.51551
3.41145 -0.614087 -4.20213
3.41146 0.0653181 -4.20213
3.41146 -0.772476 -4.20213
3.41165 -1.63908 -4.20213
3.4115 -1.05226 -4.20213
3.41145 0.0168825 -4.20213
3.41149 -1.55531 -4.20213
3.4116 -1.19557 -4.20213
3.4116 -0.327584 -4.20213
3.41148 -0.853485 -4.20213
3.41184 -0.497708 -4.20214
3.41153 0.215758 -4.20213
3.41188 -0.658682 -4.20214
3.41192 -0.0135056 -4.20214
3.41171 -0.170205 -4.20213
3.41173 0.356986 -4.20213
3.41164 -0.281613 -4.20213
3.41167 0.275737 -4.20213
3.41178 -0.115582 -4.20213
3.41414 -0.142525 -3.98992
3.42025 1.10089 -3.47057
3.4112 0.283329 -4.2406
3.42376 0.227692 -3.17207
3.41173 0.368991 -4.19492
3.41888 -0.735896 -3.58695
3.42106 -0.523855 -3.40165
3.41328 0.855475 -4.06323
3.41886 -0.273671 -3.58856
3.41543 0.156679 -3.88015
3.43566 -1.30639 -2.1598
3.41623 -1.44901 -3.81206
3.43119 -1.15713 -2.54005
3.4253 -0.681474 -3.04092
3.42556 -1.65846 -3.01861
3.42198 -1.64203 -3.32328
3.41924 -1.16072 -3.55643
3.4335 -0.551673 -2.34343
3.44013 -0.326938 -1.77922
3.4145 0.806692 -3.96831
3.42482 -0.241996 -3.09014
3.41229 -0.109064 -4.15583
3.41966 -0.111703 -3.52886
3.41303 0.484662 -4.093
3.41636 -0.162805 -3.80967
3.43634 0.678094 -2.11025
3.4221 0.56239 -3.32145
3.42727 0.411071 -2.88216
3.42121 0.442107 -3.3977
3.42606 -0.739502 -2.98459
3.43375 -0.109862 -2.33044
3.43696 -1.61751 -2.05761
3.43342 -0.113075 -2.35866
3.42984 -1.36959 -2.66327
3.43399 -0.88393 -2.31036
3.43527 0.106013 -2.20128
3.42722 -0.392066 -2.88629
3.42974 -0.761396 -2.67154
3.4255 1.12012 -3.0319
3.43176 1.12012 -2.49847
3.43916 1.12012 -1.86777
3.42809 1.12012 -2.80859
3.4178 1.12012 -3.68549
3.43282 1.12012 -2.40569
3.43805 1.12012 -1.96439
3.43742 1.12012 -2.0148
3.42802 1.12012 -2.81451
3.42782 1.12012 -2.83368
3.41305 1.12012 -4.08636
3.41657 1.12012 -3.78852
3.41563 1.12012 -3.86647
3.41323 1.12012 -4.07477
3.42198 1.12012 -3.32369
3.41032 1.12012 -4.31746
3.42208 1.12012 -3.31565
3.41403 1.12012 -4.00417
3.42535 1.12012 -3.04028
3.43052 -1.68114 -2.6057
3.44096 -1.68114 -1.7112
3.44084 -1.68114 -1.72454
3.42727 -1.68114 -2.88192
3.4365 -1.68114 -2.09123
3.43978 -1.68114 -1.8157
3.43037 -1.68114 -2.61403
3.43918 -1.68114 -1.86924
3.44144 -1.68114 -1.66842
3.42645 -1.68114 -2.95135
3.41109 -1.68114 -4.25366
3.411 -1.68114 -4.25964
3.42621 -1.68114 -2.96528
3.41539 -1.68114 -3.88431
3.41771 -1.68114 -3.69008
3.43038 -1.68114 -2.61177
3.42444 -1.68114 -3.11783
3.4205 -1.68114 -3.4524
3.41906 -1.68114 -3.57426
3.44154 -1.44216 -1.66092
3.44157 -0.633875 -1.66092
3.44161 -1.55038 -1.66092
3.44153 -0.341363 -1.66092
3.44155 -0.691652 -1.66092
3.4416 -1.13978 -1.66092
3.44155 -0.34612 -1.66092
3.44157 -0.9763 -1.66092
3.44153 -0.673541 -1.66092
3.44154 -0.750693 -1.66092
3.4416 0.612456 -1.66092
3.44158 0.611731 -1.66092
3.44162 0.472473 -1.66092
3.4416 -0.610001 -1.66092
3.4416 -0.675415 -1.66092
3.44161 -0.712782 -1.66092
3.44159 0.0727636 -1.66092
3.4416 0.969996 -1.66092
3.4416 -0.277879 -1.66092
3.4101 -0.0440472 -4.33702
3.4101 -1.52458 -4.33702
3.4101 -0.384221 -4.33702
3.41009 -1.58273 -4.33702
3.41007 -1.0429 -4.33702
3.41011 -1.18915 -4.33702
3.41008 -0.358628 -4.33702
3.41009 -1.00645 -4.33702
3.41008 -1.36264 -4.33702
3.41006 -0.291098 -4.33702
3.41014 -0.226108 -4.33702
3.41014 0.339209 -4.33702
3.41015 -0.07852 -4.33702
3.41012 0.909813 -4.33702
3.41011 1.05312 -4.33702
3.41015 0.175513 -4.33702
3.41015 0.284788 -4.33702
3.41007 1.06162 -4.33702
3.41012 -0.101202 -4.33702
0.117727 0.555686 -4.33465
-0.731473 -0.386136 -4.3329
-0.463664 0.763166 -4.33345
0.249468 0.0904442 -4.33492
-0.016829 -0.427099 -4.33437
-0.696544 0.314134 -4.33297
0.00688618 0.180567 -4.33442
-0.784523 0.600009 -4.33279
0.123483 0.00868596 -4.33466
-0.772191 0.761592 -4.33282
-1.63595 -1.45226 -4.33105
-1.24265 -0.63064 -4.33185
-2.29175 -0.421499 -4.3297
-0.764973 -1.39813 -4.33283
-2.12905 -1.17521 -4.33003
-1.77252 -0.706453 -4.33077
-1.28396 -0.5003 -4.33177
-1.59265 -1.39854 -4.33114
-1.55663 -0.370843 -4.33121
-0.797832 -0.194119 -4.33267
-0.771671 -0.123621 -4.33272
-0.615289 -0.149229 -4.33304
-0.0868898 0.375084 -4.33413
-0.988435 -0.0205763 -4.33228
-1.33407 0.636529 -4.33157
-1.72381 1.03621 -4.33077
0.147801 -0.122645 -4.33461
-1.00046 -0.116499 -4.33225
-0.911765 0.0632443 -4.33243
-1.41653 -1.59002 -4.3314
-1.79317 0.0273061 -4.33062
-1.51559 -1.39628 -4.33119
-1.7529 -0.00645682 -4.33071
-2.50821 0.312454 -4.32916
-2.29223 0.514791 -4.3296
-2.41709 -0.624137 -4.32934
-1.42076 -1.29391 -4.33139
-1.38826 -1.37999 -4.33146
-1.02157 1.12012 -4.33223
0.0638854 1.12012 -4.33444
-0.661802 1.12012 -4.33296
-2.05189 1.12012 -4.33014
-2.37932 1.12012 -4.32947
-1.18866 1.12012 -4.33187
-2.45828 1.12012 -4.32931
-2.13312 1.12012 -4.32995
-2.44708 1.12012 -4.32932
-0.834106 1.12012 -4.33259
0.0434029 1.12012 -4.33444
-0.924712 1.12012 -4.33249
-1.01003 1.12012 -4.33229
-0.658835 1.12012 -4.33302
0.121393 1.12012 -4.33464
-0.753005 1.12012 -4.33285
-0.755554 1.12012 -4.33285
0.0714989 1.12012 -4.33448
-0.312974 1.12012 -4.33371
-2.34113 -1.68114 -4.32954
-1.81643 -1.68114 -4.33064
-1.91393 -1.68114 -4.33039
-2.07399 -1.68114 -4.33013
-2.48861 -1.68114 -4.32925
-2.25493 -1.68114 -4.32975
-2.00375 -1.68114 -4.33027
-1.9269 -1.68114 -4.33042
-1.08103 -1.68114 -4.33213
-2.09568 -1.68114 -4.33004
-1.35771 -1.68114 -4.33158
-0.117552 -1.68114 -4.33415
-0.311805 -1.68114 -4.33373
-2.28023 -1.68114 -4.32972
-0.396227 -1.68114 -4.33355
-0.638269 -1.68114 -4.33307
-1.15865 -1.68114 -4.33199
-0.916039 -1.68114 -4.3325
-0.734203 -1.68114 -4.33285
-2.51882 -0.64706 -4.3292
-2.51882 -1.00595 -4.32918
-2.51882 -1.11378 -4.32918
-2.51882 -0.353013 -4.32922
-2.51882 -1.383 -4.3292
-2.51882 -1.22707 -4.3292
-2.51882 -0.482339 -4.32922
-2.51882 -0.814825 -4.32922
-2.51882 -0.534568 -4.32918
-2.51882 -1.06142 -4.32916
-2.51882 -1.24801 -4.32914
-2.51882 0.811123 -4.32916
-2.51882 0.832169 -4.32914
-2.51882 -0.751385 -4.32916
-2.51882 1.05476 -4.32916
-2.51882 0.885954 -4.32916
-2.51882 0.114573 -4.32918
-2.51882 0.0987512 -4.32914
-2.51882 -0.260156 -4.32917
0.378253 -0.355381 -4.33517
0.378253 -1.48345 -4.33514
0.378253 -1.42198 -4.33514
0.378253 -1.62108 -4.33516
0.378253 -0.274291 -4.33516
0.378253 -0.615553 -4.33516
0.378253 -0.170933 -4.33516
0.378253 -0.509545 -4.33516
0.378253 -0.719046 -4.33513
0.378253 -0.549085 -4.33518
0.378253 0.381986 -4.33512
0.378253 1.07089 -4.33517
0.378253 0.0372869 -4.33513
0.378253 0.346465 -4.33513
0.378253 0.813413 -4.33513
0.378253 0.316462 -4.33511
0.378253 -0.116377 -4.33511
0.378253 0.593008 -4.33515
0.378253 0.0309194 -4.33512
-2.52069 -0.352187 -5.26646
-2.52169 0.989308 -5.75121
-2.52182 0.295112 -5.81571
-2.52196 0.680338 -5.88303
-2.51936 -1.03422 -4.61746
-2.51967 0.0850719 -4.76801
-2.51894 -1.25638 -4.41535
-2.51916 0.836194 -4.52066
-2.52161 0.366311 -5.71152
-2.52037 0.359121 -5.10788
-2.52232 -0.316999 -6.0578
-2.52484 -1.27831 -7.28594
-2.52389 -1.0523 -6.8258
-2.52546 -0.604753 -7.58806
-2.52458 -1.49206 -7.16168
-2.52371 -0.608243 -6.73741
-2.52155 -0.75028 -5.68626
-2.52362 -0.759065 -6.69427
-2.52547 -0.672007 -7.59285
-2.52091 -0.187567 -5.32296
-2.5191 0.558124 -4.44456
-2.51992 -0.0276859 -4.8402
-2.52016 0.846121 -4.96025
-2.51929 -0.158798 -4.53619
-2.52084 0.0344451 -5.28859
-2.5249 0.831824 -7.26774
-2.52022 0.844807 -4.98552
-2.52071 0.049076 -5.22563
-2.52122 0.245984 -5.47438
-2.5226 -1.4691 -6.14942
-2.52411 -0.46298 -6.8818
-2.5246 -1.23097 -7.12081
-2.52516 0.231492 -7.39547
-2.52391 0.247233 -6.78376
-2.52362 -1.48472 -6.64303
-2.52359 -0.924719 -6.63
-2.52548 0.926912 -7.54884
-2.52269 -1.64516 -6.19179
-2.52034 1.12012 -5.05272
-2.52185 1.12012 -5.78221
-2.52354 1.12012 -6.61622
-2.52267 1.12012 -6.18413
-2.52284 1.12012 -6.27895
-2.52482 1.12012 -7.25341
-2.52484 1.12012 -7.25695
-2.52549 1.12012 -7.574
-2.52398 1.12012 -6.83671
-2.52356 1.12012 -6.61595
-2.52173 1.12012 -5.76357
-2.51902 1.12012 -4.44375
-2.52202 1.12012 -5.9019
-2.52024 1.12012 -5.00972
-2.52185 1.12012 -5.80232
-2.51992 1.12012 -4.88117
-2.51947 1.12012 -4.65091
-2.51926 1.12012 -4.54826
-2.51935 1.12012 -4.56917
-2.52352 -1.68114 -6.62163
-2.52533 -1.68114 -7.51148
-2.52407 -1.68114 -6.89295
-2.52407 -1.68114 -6.8715
-2.52356 -1.68114 -6.64561
-2.52403 -1.68114 -6.87986
-2.52329 -1.68114 -6.4952
-2.52445 -1.68114 -7.07243
-2.52527 -1.68114 -7.45591
-2.52302 -1.68114 -6.36156
-2.52179 -1.68114 -5.78131
-2.5199 -1.68114 -4.86209
-2.52257 -1.68114 -6.16999
-2.52166 -1.68114 -5.72991
-2.52188 -1.68114 -5.82288
-2.51887 -1.68114 -4.37846
-2.5194 -1.68114 -4.6228
-2.52268 -1.68114 -6.22865
-2.52291 -1.68114 -6.33853
-2.52567 -0.368345 -7.69263
-2.52573 -0.622301 -7.69263
-2.52572 -0.430369 -7.69263
-2.52572 -1.59489 -7.69263
-2.52571 -0.581691 -7.69263
-2.52574 -1.4741 -7.69263
-2.52571 -0.436495 -7.69263
-2.52569 -0.923032 -7.69263
-2.5257 -1.11244 -7.69263
-2.52572 -0.535707 -7.69263
-2.52572 0.212229 -7.69263
-2.52576 -0.3798 -7.69263
-2.52576 -0.739185 -7.69263
-2.52574 0.906969 -7.69263
-2.52574 0.912095 -7.69263
-2.52575 -0.062767 -7.69263
-2.52575 -1.12197 -7.69263
-2.52574 -0.111034 -7.69263
-2.52577 -0.394361 -7.69263
-2.51882 -1.56701 -4.32918
-2.51877 -1.12402 -4.32918
-2.51878 -0.49062 -4.32918
-2.51882 -0.320218 -4.32918
-2.5188 -0.574337 -4.32918
-2.51878 -1.09139 -4.32918
-2.51878 0.588194 -4.32918
-2.51877 0.481062 -4.32918
-2.51881 -0.272234 -4.32918
-2.51881 -1.53113 -4.32918
-2.51881 0.185213 -4.32918
-2.5188 0.778887 -4.32918
-2.51884 -0.110621 -4.32918
-2.51884 -0.203971 -4.32918
-2.51883 0.847542 -4.32918
-2.51883 0.552106 -4.32918
-2.51882 -0.0363923 -4.32918
-2.51885 0.644497 -4.32918
-2.51884 -0.181593 -4.32918
-2.51972 0.517513 -4.8882
-2.5192 0.268119 -4.63827
-2.51965 -0.0084931 -4.85873
-2.51963 0.356044 -4.84693
-2.51902 0.197332 -4.55109
-2.519 0.32807 -4.54018
-2.51937 0.656794 -4.7211
-2.51925 -0.0336905 -4.66229
-2.51901 -0.192333 -4.5434
-2.51978 0.460895 -4.91763
-2.52015 -0.307834 -5.09931
-2.51959 -0.821672 -4.82685
-2.52036 -0.113092 -5.20213
-2.51925 -0.789435 -4.65934
-2.51958 -0.535117 -4.82437
-2.51925 -0.884903 -4.66231
-2.51984 -0.520527 -4.94864
-2.51942 -0.674972 -4.74233
-2.5206 -0.479242 -5.31948
-2.5197 0.0105378 -4.63698
-2.51968 0.0376239 -4.62622
-2.51969 0.219921 -4.63092
-2.51987 0.124418 -4.72066
-2.51943 -0.0780788 -4.507
-2.5203 -0.0516268 -4.92726
-2.51991 0.0583085 -4.73764
-2.52027 0.0592 -4.91624
-2.51972 0.660435 -4.64803
-2.52016 0.690599 -4.86158
-2.52034 -0.489377 -4.94662
-2.52119 -0.347608 -5.36492
-2.5204 -0.440522 -4.97823
-2.52041 -0.539422 -4.98423
-2.52089 -0.614493 -5.21792
-2.52083 -0.498516 -5.19011
-2.52057 -0.552922 -5.06333
-2.52059 -0.873495 -5.06853
-2.52052 -0.617342 -5.03837
-2.52057 0.71669 -5.17915
-2.52091 0.71669 -5.23022
-2.52009 0.71669 -4.91065
-2.52037 0.71669 -4.9783
-2.52031 0.71669 -4.99707
-2.52094 0.71669 -5.35332
-2.52023 0.71669 -4.97581
-2.52105 0.71669 -5.37932
-2.51997 0.71669 -4.84102
-2.52101 0.71669 -5.3239
-2.51982 0.71669 -4.92306
-2.51924 0.71669 -4.52597
-2.5195 0.71669 -4.59792
-2.51966 0.71669 -4.70565
-2.51972 0.71669 -4.87689
-2.51965 0.71669 -4.68197
-2.51965 0.71669 -4.65997
-2.51944 0.71669 -4.7432
-2.51948 0.71669 -4.76023
-2.52021 -0.93281 -5.02983
-2.52063 -0.93281 -5.24443
-2.52065 -0.93281 -5.28443
-2.52064 -0.93281 -5.2946
-2.52085 -0.93281 -5.23492
-2.5202 -0.93281 -4.95738
-2.52077 -0.93281 -5.27521
-2.5203 -0.93281 -4.96925
-2.52092 -0.93281 -5.26137
-2.52037 -0.93281 -5.01925
-2.51999 -0.93281 -4.97679
-2.51919 -0.93281 -4.55696
-2.51929 -0.93281 -4.56267
-2.52019 -0.93281 -5.10258
-2.51998 -0.93281 -4.94065
-2.52032 -0.93281 -5.17354
-2.51997 -0.93281 -4.90522
-2.5194 -0.93281 -4.69909
-2.51922 -0.93281 -4.62592
-2.52093 -0.581657 -5.38026
-2.52078 -0.501769 -5.38026
-2.52101 -0.606342 -5.38026
-2.52086 -0.406452 -5.38026
-2.52096 -0.864017 -5.38026
-2.52091 -0.512249 -5.38026
-2.52092 -0.323502 -5.38026
-2.52112 -0.602354 -5.38026
-2.52073 -0.904705 -5.38026
-2.52094 -0.555311 -5.38026
-2.52113 0.0644271 -5.38026
-2.52103 0.406114 -5.38026
-2.521 0.603217 -5.38026
-2.521 -0.152238 -5.38026
-2.52104 0.364314 -5.38026
-2.52104 0.349091 -5.38026
-2.5212 -0.723941 -5.38026
-2.52098 -0.0862993 -5.38026
-2.52122 -0.767107 -5.38026
-2.519 0.168231 -4.49435
-2.51895 0.54446 -4.49435
-2.51906 -0.601835 -4.49435
-2.5191 -0.663305 -4.49435
-2.51904 -0.0052975 -4.49435
-2.51909 -0.144631 -4.49435
-2.51895 0.0903024 -4.49435
-2.51892 0.255079 -4.49435
-2.51892 0.427713 -4.49435
-2.51903 0.205924 -4.49435
-2.51931 0.0615978 -4.49435
-2.51926 0.356396 -4.49435
-2.51921 0.0414144 -4.49435
-2.5191 0.308087 -4.49435
-2.51931 0.434608 -4.49435
-2.51931 0.30261 -4.49435
-2.51917 0.197923 -4.49435
-2.51912 0.181078 -4.49435
-2.51933 0.371708 -4.49435
0.432498 0.17054 -1.66172
0.390399 0.307143 -1.66194
0.391936 -0.612163 -1.66194
0.558269 -0.567801 -1.66107
0.337451 0.626813 -1.66222
0.76096 0.36959 -1.66001
0.758944 0.270123 -1.66002
0.862541 0.119285 -1.65947
0.58256 -0.317686 -1.66094
0.407435 -0.666892 -1.66186
1.07424 -1.37864 -1.65837
0.866118 -1.10117 -1.65946
1.33212 -0.991156 -1.65702
1.38326 -0.915201 -1.65675
1.20433 -0.490166 -1.65769
1.29039 -1.23638 -1.65724
1.40889 -0.748034 -1.65662
1.01225 -0.90891 -1.65869
0.880563 -1.0097 -1.65938
0.973419 0.0476027 -1.65939
0.898912 0.55765 -1.65978
0.505581 0.359393 -1.66184
0.699152 0.603491 -1.66083
0.473347 0.00914257 -1.66201
0.350994 0.278254 -1.66265
0.564731 -0.128352 -1.66153
0.378775 -0.399691 -1.66251
1.26597 0.674106 -1.65786
0.682363 -0.0696725 -1.66092
1.00123 -1.4435 -1.65925
1.04818 -0.797512 -1.659
1.19044 -0.227743 -1.65826
1.35797 -0.772299 -1.65738
0.959827 -0.342853 -1.65947
0.955687 -0.718717 -1.65949
1.35212 -0.868205 -1.65741
1.22857 -1.633 -1.65806
1.34951 0.191703 -1.65743
1.2783 0.718863 -1.65763
1.13107 0.718863 -1.65849
0.510483 0.718863 -1.66181
0.888446 0.718863 -1.65964
1.2037 0.718863 -1.65805
1.27339 0.718863 -1.6576
0.558395 0.718863 -1.66147
1.30131 0.718863 -1.65755
0.840013 0.718863 -1.65995
0.857342 0.718863 -1.6598
0.33097 0.718863 -1.66267
0.733577 0.718863 -1.66016
0.754047 0.718863 -1.66004
0.614463 0.718863 -1.6608
0.838503 0.718863 -1.65972
0.464841 0.718863 -1.66174
0.776918 0.718863 -1.66008
0.460031 0.718863 -1.66178
0.808201 0.718863 -1.65976
1.01208 -1.68114 -1.65897
1.42253 -1.68114 -1.65661
1.28649 -1.68114 -1.6577
1.09212 -1.68114 -1.65859
1.17526 -1.68114 -1.65834
1.11866 -1.68114 -1.65829
1.05319 -1.68114 -1.6589
0.979752 -1.68114 -1.65927
1.18934 -1.68114 -1.65802
1.07482 -1.68114 -1.6587
0.77674 -1.68114 -1.66013
0.97556 -1.68114 -1.65901
0.703762 -1.68114 -1.66037
0.978573 -1.68114 -1.65889
0.367152 -1.68114 -1.66221
0.632539 -1.68114 -1.66087
0.5164 -1.68114 -1.66146
0.367949 -1.68114 -1.66221
0.40921 -1.68114 -1.66188
1.42524 -0.483939 -1.65675
1.42524 -0.526107 -1.65678
1.42524 -1.51206 -1.65661
1.42524 -0.613201 -1.6566
1.42524 -1.29437 -1.65666
1.42524 -0.934593 -1.65678
1.42524 -0.967316 -1.65663
1.42524 -1.59452 -1.65664
1.42524 -0.809461 -1.65671
1.42524 -1.48458 -1.65668
1.42524 -0.359635 -1.65696
1.42524 -0.727593 -1.65697
1.42524 0.551739 -1.657
1.42524 0.619693 -1.65684
1.42524 -0.313423 -1.65679
1.42524 -0.184541 -1.65682
1.42524 0.219902 -1.65685
1.42524 0.571218 -1.65681
1.42524 -0.478898 -1.6569
0.330818 -0.388716 -1.66247
0.330818 -0.0161734 -1.66235
0.330818 -1.15714 -1.66249
0.330818 -0.508158 -1.66249
0.330818 -0.928636 -1.66242
0.330817 -0.148774 -1.6623
0.330817 -1.08847 -1.66228
0.330817 0.428233 -1.66227
0.330818 -1.62922 -1.66236
0.330818 -1.07899 -1.6625
0.33082 0.508186 -1.66274
0.330819 -0.448013 -1.66253
0.330819 -0.0525833 -1.66271
0.330819 0.6693 -1.66266
0.33082 -0.448461 -1.66273
0.330819 0.60705 -1.66259
0.330818 0.386044 -1.66246
0.330819 -0.295783 -1.66263
0.33082 -0.24068 -1.66273
0.550334 0.0317243 -1.66131
0.405684 0.299417 -1.66206
0.867987 -0.0495885 -1.65965
0.632565 -0.288696 -1.66088
0.829232 0.976475 -1.65985
0.471124 -1.11314 -1.66172
0.742862 -0.164448 -1.6603
0.743084 0.0302142 -1.6603
0.473358 0.750721 -1.66171
0.859837 0.537706 -1.65969
0.500585 -1.31885 -1.66157
1.16645 -1.28887 -1.65808
0.594511 -1.07545 -1.66108
1.05683 -0.672412 -1.65866
0.877937 -0.321738 -1.65959
1.19682 -0.913381 -1.65793
1.23184 -0.517954 -1.65774
1.14548 -0.865892 -1.65819
0.646817 -1.29354 -1.6608
0.355045 -0.227529 -1.66243
0.809161 -0.0756607 -1.66005
0.763763 0.146161 -1.66029
0.602405 0.655425 -1.66114
0.833033 1.04613 -1.65993
0.774458 0.685955 -1.66024
0.384179 0.831416 -1.66228
0.605462 0.0557983 -1.66112
0.491125 -0.269147 -1.66172
0.418649 -0.175874 -1.6621
1.40653 0.625296 -1.65693
0.979105 -1.50867 -1.65916
1.33234 -0.0200393 -1.65732
0.980944 -0.492336 -1.65915
1.34938 -1.38431 -1.65723
0.89926 -1.49522 -1.65958
0.894498 -0.721026 -1.65961
0.910431 -0.924079 -1.65952
1.29418 0.428224 -1.65752
0.820648 1.12012 -1.65995
0.651734 1.12012 -1.66086
1.31916 1.12012 -1.65735
0.917239 1.12012 -1.65947
1.06879 1.12012 -1.65867
0.932048 1.12012 -1.65939
1.23309 1.12012 -1.65782
1.00285 1.12012 -1.65899
0.790798 1.12012 -1.66014
1.19086 1.12012 -1.65803
0.671146 1.12012 -1.66069
0.38863 1.12012 -1.66218
0.629672 1.12012 -1.66095
0.6523 1.12012 -1.66082
0.470933 1.12012 -1.66177
0.762337 1.12012 -1.66025
0.673852 1.12012 -1.66072
0.369384 1.12012 -1.66234
0.452769 1.12012 -1.66187
1.114 -1.68114 -1.65839
1.09254 -1.68114 -1.6585
1.08147 -1.68114 -1.65856
1.40522 -1.68114 -1.65684
0.959497 -1.68114 -1.65924
1.11252 -1.68114 -1.6584
1.02163 -1.68114 -1.6589
0.993333 -1.68114 -1.65905
0.924641 -1.68114 -1.6594
1.11874 -1.68114 -1.65843
0.331642 -1.68114 -1.66247
0.754406 -1.68114 -1.66024
0.417053 -1.68114 -1.66204
0.741207 -1.68114 -1.66032
1.38134 -1.68114 -1.65696
0.904811 -1.68114 -1.65948
0.901198 -1.68114 -1.65951
0.958645 -1.68114 -1.65921
0.523843 -1.68114 -1.66146
1.42524 -1.23665 -1.65674
1.42524 -0.310372 -1.65674
1.42524 -1.2037 -1.65675
1.42524 -1.67979 -1.6568
1.42524 -1.16862 -1.65679
1.42524 -0.423763 -1.65674
1.42524 -1.09861 -1.6568
1.42524 -1.28903 -1.65678
1.42524 -1.08853 -1.65675
1.42524 -1.46099 -1.65676
1.42524 0.73488 -1.65683
1.42524 -0.0096929 -1.65681
1.42524 0.335899 -1.65681
1.42524 0.634829 -1.65679
1.42524 -0.233761 -1.65679
1.42524 1.0674 -1.6568
1.42524 -0.0849033 -1.65679
1.42524 0.942201 -1.65683
1.42524 0.0191707 -1.65682
0.330818 0.268843 -1.66247
0.330818 0.337157 -1.66248
0.330818 -1.14736 -1.66251
0.330818 -1.66591 -1.6625
0.330818 -0.266502 -1.66248
0.330818 -1.64486 -1.6625
0.330818 -1.67639 -1.66246
0.330818 -0.755389 -1.66249
0.330818 -0.548227 -1.66246
0.330818 -0.800813 -1.6625
0.330819 0.102109 -1.66254
0.330818 -0.137417 -1.6625
0.330818 0.371263 -1.66249
0.330818 0.455828 -1.66252
0.330818 0.273842 -1.66251
0.330818 0.790249 -1.66247
0.330818 0.0144189 -1.66251
0.330819 0.920574 -1.66253
0.330819 -0.150301 -1.66254
2.70458 -0.618672 -1.65916
2.91883 0.153684 -1.6596
2.68469 -0.897417 -1.65912
2.68085 -0.762068 -1.65911
2.83412 -0.206872 -1.65942
2.72789 -0.53565 -1.6592
2.84223 0.0839557 -1.65944
2.77947 -0.294482 -1.65931
2.69729 -0.607673 -1.65914
2.78815 -0.940295 -1.65933
3.11719 -1.63857 -1.66
3.05878 -0.681465 -1.65988
3.36651 -1.57589 -1.66051
3.18682 -1.41581 -1.66015
3.24953 -1.38667 -1.66027
2.78596 -1.46397 -1.65932
2.85914 -1.46303 -1.65947
2.56911 -1.63567 -1.65888
2.85548 -1.10224 -1.65947
3.02356 -0.0365002 -1.66031
2.55169 0.512452 -1.65934
2.79984 -0.0247835 -1.65985
2.62712 -0.282025 -1.6595
3.13293 0.135598 -1.66054
2.84151 0.00551669 -1.65994
2.74671 0.317464 -1.65974
2.84977 -0.104419 -1.65995
2.74903 -0.0404179 -1.65975
2.62621 -0.18745 -1.6595
3.38488 -0.776039 -1.66105
3.33061 -0.423971 -1.66094
3.40723 -0.0341533 -1.6611
3.01047 -1.26106 -1.66028
3.05795 -1.15523 -1.66038
3.23518 -1.15838 -1.66074
3.3982 -0.681092 -1.66108
3.03837 -0.80278 -1.66034
3.04531 -0.612933 -1.66036
3.20918 0.718863 -1.66064
2.90891 0.718863 -1.66006
3.13485 0.718863 -1.66041
3.19296 0.718863 -1.66057
3.07178 0.718863 -1.66029
3.41832 0.718863 -1.66099
3.38597 0.718863 -1.66089
3.15167 0.718863 -1.66051
2.86737 0.718863 -1.65992
3.14418 0.718863 -1.66046
2.82754 0.718863 -1.65966
2.74061 0.718863 -1.65932
2.89953 0.718863 -1.6596
2.64536 0.718863 -1.65934
2.96191 0.718863 -1.65969
2.82732 0.718863 -1.65962
2.8576 0.718863 -1.65959
2.60917 0.718863 -1.65919
2.98199 0.718863 -1.65995
3.35611 -1.68114 -1.66054
3.32212 -1.68114 -1.66082
3.22412 -1.68114 -1.6606
3.30256 -1.68114 -1.66086
3.36671 -1.68114 -1.66066
3.29389 -1.68114 -1.66049
3.02234 -1.68114 -1.66021
3.09464 -1.68114 -1.66034
3.23527 -1.68114 -1.66042
3.07686 -1.68114 -1.66036
2.82486 -1.68114 -1.65941
2.9142 -1.68114 -1.65972
3.06997 -1.68114 -1.66011
2.90379 -1.68114 -1.65978
3.18017 -1.68114 -1.66028
2.56373 -1.68114 -1.65887
2.74035 -1.68114 -1.65934
2.72265 -1.68114 -1.65944
2.96797 -1.68114 -1.6598
3.44157 -1.17766 -1.6609
3.44157 -1.29751 -1.66105
3.44157 -0.490413 -1.66091
3.44157 -1.28666 -1.66099
3.44157 -1.13596 -1.66099
3.44158 -1.57855 -1.66082
3.44157 -1.67097 -1.66089
3.44158 -0.870072 -1.66075
3.44158 -0.861951 -1.66071
3.44158 -1.06275 -1.66071
3.44157 -0.136384 -1.66109
3.44157 0.668403 -1.66099
3.44157 -0.434008 -1.66093
3.44157 -1.15869 -1.66115
3.44157 -0.300258 -1.66113
3.44157 -0.188959 -1.66106
3.44157 0.12212 -1.66101
3.44157 -0.629828 -1.66095
3.44157 0.165959 -1.66105
2.55038 -1.01347 -1.65909
2.55038 -0.646762 -1.65905
2.55038 -0.279584 -1.65885
2.55038 -0.0149148 -1.65891
2.55038 -1.45991 -1.65906
2.55038 -1.11332 -1.65891
2.55038 0.312287 -1.65888
2.55038 -0.0271859 -1.65887
2.55038 -1.23834 -1.6589
2.55038 -1.34212 -1.65885
2.55038 -0.426516 -1.65921
2.55038 0.312953 -1.65896
2.55038 0.037054 -1.65932
2.55038 0.235367 -1.65895
2.55038 0.0760608 -1.6592
2.55038 0.343964 -1.65897
2.55038 -0.132833 -1.6591
2.55038 -0.174885 -1.65917
2.55038 -0.059807 -1.6593
1.54853 0.6777 -1.65698
1.55136 -0.765671 -1.65699
1.77642 1.01529 -1.65745
1.71986 1.06405 -1.65733
2.36007 0.731454 -1.65865
2.16115 -0.47904 -1.65824
2.07135 0.0669535 -1.65806
2.04157 0.769244 -1.658
1.98036 0.363182 -1.65787
1.93993 -0.338599 -1.65779
1.73262 -1.53989 -1.65736
3.1633 -0.321189 -1.6603
2.01624 -1.4108 -1.65794
2.46188 -1.01548 -1.65886
3.11133 -1.23289 -1.66019
2.91396 -0.372748 -1.65979
3.21607 -0.363549 -1.66041
2.22916 -1.03368 -1.65838
3.23732 -1.06901 -1.66045
2.87197 0.730273 -1.6598
1.70615 -0.240325 -1.65741
2.60892 0.892229 -1.65926
2.51253 0.487649 -1.65906
1.57611 0.238033 -1.65714
2.79377 1.06847 -1.65964
2.02188 -0.263271 -1.65805
2.40145 0.768665 -1.65883
1.9178 0.929921 -1.65784
2.40417 -0.104633 -1.65884
2.98172 -1.15207 -1.66002
3.2733 0.208163 -1.66062
2.49375 -1.23713 -1.65902
2.74865 0.0646794 -1.65955
2.65529 -1.06239 -1.65935
3.39513 -1.23377 -1.66087
3.27972 -0.657617 -1.66064
2.66715 -1.47443 -1.65938
2.81516 0.187343 -1.65968
2.39794 1.12012 -1.65883
2.17352 1.12012 -1.65836
3.3501 1.12012 -1.66076
3.23356 1.12012 -1.66052
3.23732 1.12012 -1.66051
2.64039 1.12012 -1.6593
1.56753 1.12012 -1.65712
3.01198 1.12012 -1.66004
2.85243 1.12012 -1.65971
2.80375 1.12012 -1.65962
1.44576 1.12012 -1.65683
1.63277 1.12012 -1.65716
2.20801 1.12012 -1.65834
2.43222 1.12012 -1.6588
1.86494 1.12012 -1.65767
2.13162 1.12012 -1.6582
1.53764 1.12012 -1.65698
2.38653 1.12012 -1.65872
2.37959 1.12012 -1.65873
2.91203 -1.68114 -1.65985
2.78745 -1.68114 -1.65957
2.4383 -1.68114 -1.65888
3.40714 -1.68114 -1.66085
2.86922 -1.68114 -1.65973
3.32856 -1.68114 -1.66069
2.50574 -1.68114 -1.65902
2.85032 -1.68114 -1.65975
3.15518 -1.68114 -1.66034
2.52407 -1.68114 -1.65906
1.98416 -1.68114 -1.65792
3.06105 -1.68114 -1.6601
2.65419 -1.68114 -1.65928
2.24948 -1.68114 -1.65844
2.29091 -1.68114 -1.65853
1.51921 -1.68114 -1.65694
2.66815 -1.68114 -1.65928
1.99752 -1.68114 -1.65795
2.60159 -1.68114 -1.65919
3.44157 -1.41907 -1.6609
3.44157 -1.17295 -1.66094
3.44157 -0.665689 -1.6609
3.44157 -0.982207 -1.66091
3.44157 -0.972138 -1.66089
3.44157 -0.681173 -1.66093
3.44157 -1.67892 -1.66091
3.44158 -1.01014 -1.66087
3.44157 -0.806257 -1.66091
3.44157 -1.08027 -1.66095
3.44157 0.968772 -1.66093
3.44157 0.283489 -1.66096
3.44157 -1.41555 -1.66097
3.44157 -0.250951 -1.66094
3.44157 0.814836 -1.66092
3.44157 0.657336 -1.66094
3.44157 -0.640487 -1.66096
3.44157 -0.96625 -1.66097
3.44157 0.200889 -1.66093
1.42524 -0.21019 -1.65674
1.42524 0.319827 -1.65674
1.42524 -1.50108 -1.65676
1.42524 -1.28485 -1.65675
1.42524 -0.795998 -1.65676
1.42524 -0.501594 -1.65673
1.42524 -0.0787889 -1.65677
1.42524 -0.323318 -1.65677
1.42524 -1.58628 -1.65675
1.42524 -0.138817 -1.65674
1.42524 0.047392 -1.65681
1.42524 0.324476 -1.65678
1.42524 0.234624 -1.65678
1.42524 0.900813 -1.65681
1.42524 -0.273554 -1.65681
1.42524 -0.16574 -1.65682
1.42524 -0.111713 -1.65679
1.42524 -0.251898 -1.65678
1.42524 0.388603 -1.6568
4.41117 -0.229376 0.881713
4.41075 0.526158 0.67603
4.41059 0.135689 0.599998
4.40647 -1.31278 -1.40789
4.40686 0.427332 -1.21536
4.41123 0.134633 0.912845
4.40668 -0.475122 -1.30375
4.40742 -0.728108 -0.94297
4.40788 -0.429435 -0.719144
4.41031 0.773785 0.463204
4.41422 -1.64995 2.3697
4.41454 -0.502398 2.52707
4.41043 -0.872022 0.520775
4.40834 -1.20842 -0.497738
4.41144 -0.368459 1.01323
4.41358 -0.712744 2.05687
4.41515 -1.05718 2.82302
4.41335 -1.29118 1.94284
4.41068 -1.25923 0.646273
4.40932 0.238161 -0.0669907
4.40621 0.622269 -1.58233
4.40808 0.719216 -0.670277
4.40833 0.204283 -0.548727
4.41149 0.109778 0.98948
4.41428 0.651201 2.34708
4.40787 0.631731 -0.774489
4.4104 0.352178 0.46095
4.41098 0.663954 0.740706
4.41125 0.200969 0.871022
4.4137 -0.341102 2.06671
4.41596 -0.303153 3.16931
4.41234 -0.799523 1.40381
4.41337 -1.19844 1.90426
4.41573 0.173668 3.05418
4.41665 0.599769 3.50444
4.41458 -0.766126 2.49648
4.41177 -0.267258 1.12695
4.41226 -1.28452 1.36632
4.41458 1.12012 2.5053
4.40779 1.12012 -0.807058
4.41486 1.12012 2.64926
4.41118 1.12012 0.8446
4.40826 1.12012 -0.579121
4.4126 1.12012 1.54675
4.41226 1.12012 1.38727
4.41692 1.12012 3.65567
4.41146 1.12012 0.991436
4.41068 1.12012 0.604568
4.40743 1.12012 -0.961122
4.41027 1.12012 0.442067
4.40822 1.12012 -0.589484
4.41128 1.12012 0.913035
4.41059 1.12012 0.599316
4.40849 1.12012 -0.455971
4.41004 1.12012 0.319579
4.40727 1.12012 -1.03032
4.40958 1.12012 0.076843
4.4135 -1.68114 1.99728
4.41459 -1.68114 2.50616
4.41259 -1.68114 1.52709
4.41214 -1.68114 1.33404
4.41243 -1.68114 1.45953
4.41691 -1.68114 3.66269
4.41167 -1.68114 1.09116
4.41416 -1.68114 2.30742
4.41632 -1.68114 3.34399
4.41542 -1.68114 2.91194
4.4152 -1.68114 2.84229
4.40674 -1.68114 -1.27739
4.41057 -1.68114 0.575483
4.41538 -1.68114 2.93222
4.40864 -1.68114 -0.372957
4.40601 -1.68114 -1.64445
4.41072 -1.68114 0.663567
4.40981 -1.68114 0.199987
4.40995 -1.68114 0.27003
4.41707 -0.771074 3.74761
4.41707 -1.55285 3.74761
4.4171 -1.56292 3.74761
4.41712 -1.53987 3.74761
4.41714 -1.56944 3.74761
4.41714 -1.57026 3.74761
4.41712 -1.40658 3.74761
4.41707 -1.10427 3.74761
4.4171 -0.604251 3.74761
4.41707 -1.07074 3.74761
4.41715 -1.57074 3.74761
4.41711 -0.205876 3.74761
4.41711 -0.365829 3.74761
4.41713 -1.05798 3.74761
4.41712 0.27802 3.74761
4.41711 0.602019 3.74761
4.41712 0.236683 3.74761
4.41711 -0.177572 3.74761
4.41714 -0.804134 3.74761
4.40594 0.1838 -1.67538
4.40593 0.281507 -1.67538
4.40594 0.619579 -1.67538
4.40596 -1.613 -1.67538
4.40592 0.759937 -1.67538
4.40592 -1.45175 -1.67538
4.40595 -0.223371 -1.67538
4.40596 -0.303334 -1.67538
4.40595 -0.446209 -1.67538
4.40592 -1.29972 -1.67538
4.40598 0.060014 -1.67538
4.406 0.928283 -1.67538
4.40595 0.36907 -1.67538
4.40599 0.0764595 -1.67538
4.40601 0.238284 -1.67538
4.40599 0.503903 -1.67538
4.40601 0.693067 -1.67538
4.40598 -0.0433786 -1.67538
4.40597 0.745701 -1.67538
1.12682 -0.0552721 3.7539
1.07736 -0.417128 3.754
1.09855 -0.424183 3.75396
0.835294 -0.0719308 3.7545
1.14922 -0.543444 3.75385
1.14662 0.166391 3.75386
0.869781 0.0935584 3.75443
1.15584 -0.332584 3.75384
0.936739 -0.0206517 3.75429
0.837689 0.288489 3.75449
0.618191 -1.22746 3.75494
0.625576 -0.985937 3.75493
0.964085 -1.3959 3.75423
0.465868 -0.74231 3.75526
0.993939 -1.60792 3.75417
1.05868 -1.41716 3.75404
0.421569 -1.10148 3.75535
0.564383 -0.65924 3.75505
0.74144 -0.674978 3.75469
1.00754 0.128023 3.75464
0.791479 0.370329 3.75509
0.834887 -0.169413 3.755
0.995905 -0.539465 3.75467
0.549571 -0.0386656 3.75558
0.480526 0.377675 3.75573
0.483678 0.155216 3.75572
1.16808 0.0588231 3.75431
1.13089 0.0567404 3.75439
0.876226 -0.18845 3.75491
0.379153 -0.997824 3.75593
0.45058 -1.14412 3.75579
0.412868 -0.895093 3.75586
0.68602 -1.58582 3.7553
0.638131 -0.729761 3.7554
0.697125 -1.62139 3.75528
0.776032 -1.67082 3.75512
0.760458 -1.24106 3.75515
0.410236 0.0135453 3.75587
0.674968 0.407392 3.7551
0.821636 0.407392 3.75491
0.458744 0.407392 3.75557
0.661235 0.407392 3.75521
0.69186 0.407392 3.75528
0.748982 0.407392 3.75512
0.814177 0.407392 3.75497
0.610255 0.407392 3.7553
0.877469 0.407392 3.75479
0.70115 0.407392 3.75523
1.17325 0.407392 3.7541
1.13231 0.407392 3.75393
1.15885 0.407392 3.75386
1.16191 0.407392 3.75403
0.873318 0.407392 3.75456
0.821215 0.407392 3.75454
1.13353 0.407392 3.75392
0.950563 0.407392 3.75438
1.10988 0.407392 3.75413
0.545313 -1.68114 3.75531
0.392858 -1.68114 3.75563
0.431423 -1.68114 3.75561
0.547163 -1.68114 3.75551
0.752606 -1.68114 3.75514
0.609695 -1.68114 3.75532
0.551609 -1.68114 3.75532
0.66629 -1.68114 3.75508
0.496119 -1.68114 3.75569
0.444371 -1.68114 3.75558
0.75977 -1.68114 3.75474
0.669573 -1.68114 3.75498
1.00422 -1.68114 3.75421
0.730306 -1.68114 3.75492
0.464913 -1.68114 3.7553
0.836975 -1.68114 3.75457
0.839313 -1.68114 3.75466
0.639005 -1.68114 3.755
0.908442 -1.68114 3.75457
0.369928 -1.07331 3.75549
0.369928 -0.949456 3.75559
0.369929 -1.45461 3.75577
0.369928 -0.738021 3.75561
0.369928 -0.774773 3.75561
0.369929 -1.1271 3.75579
0.369929 -1.35317 3.75571
0.369928 -1.38522 3.75552
0.369928 -0.739397 3.75559
0.369928 -1.3027 3.75562
0.369929 -0.350076 3.75574
0.369929 -0.328959 3.75589
0.369929 -0.675753 3.75586
0.369929 -0.611663 3.75571
0.369929 -0.294024 3.75573
0.369929 -0.184835 3.75573
0.369929 0.127209 3.75576
0.369929 0.392403 3.75587
0.369929 0.180432 3.7558
1.1831 -0.782718 3.7538
1.1831 -0.157459 3.75381
1.1831 -1.42583 3.75389
1.1831 -0.703637 3.75379
1.1831 -1.3956 3.75393
1.1831 -0.708322 3.754
1.1831 -0.600167 3.75387
1.1831 -0.401191 3.75396
1.1831 -1.52466 3.7538
1.1831 -0.279329 3.7539
1.1831 -0.261833 3.75407
1.1831 -0.000831931 3.75398
1.1831 0.298269 3.75389
1.1831 0.184753 3.75403
1.1831 -0.101313 3.75402
1.1831 -0.527015 3.75406
1.1831 -0.451533 3.75411
1.1831 -0.485799 3.75426
1.1831 -0.318221 3.75421
4.07182 -0.115719 3.74805
2.70285 0.631064 3.75086
3.21737 -0.699326 3.74981
3.84594 -0.929862 3.74852
3.70619 -0.02659 3.7488
4.06029 -0.666642 3.74808
2.77653 -0.140357 3.75071
2.7505 -0.335751 3.75077
3.26936 -0.816885 3.7497
3.21362 1.02749 3.74982
1.96401 -0.32037 3.75238
2.59562 -1.38002 3.75108
2.75827 -1.54421 3.75075
2.54972 -0.688173 3.75118
2.2657 -1.04344 3.75176
2.64085 -1.04423 3.75099
0.606959 -1.60646 3.75517
1.29644 -1.07214 3.75375
0.645716 -1.61093 3.75509
2.20891 1.05835 3.75198
4.34521 0.230561 3.74759
4.13824 0.158454 3.74802
2.12977 0.258708 3.75214
1.77434 0.136865 3.75287
4.19793 -0.279741 3.74789
1.83013 0.855306 3.75275
2.69835 0.0199674 3.75097
2.56268 -0.0242312 3.75125
3.52656 -0.248825 3.74927
1.75891 -0.331662 3.7529
2.00433 -0.378057 3.7524
1.34657 -1.05298 3.75375
0.75117 -0.220615 3.75497
1.48425 -0.781923 3.75346
2.05079 -1.02241 3.7523
2.13865 -0.728507 3.75212
1.17266 -0.0293014 3.7541
1.62557 -0.622958 3.75317
2.21114 1.12012 3.75193
0.382303 1.12012 3.7557
3.19141 1.12012 3.74995
0.305025 1.12012 3.75584
0.47163 1.12012 3.75554
1.72102 1.12012 3.75295
3.13629 1.12012 3.75007
0.376154 1.12012 3.75572
1.75976 1.12012 3.75286
0.558689 1.12012 3.75535
3.01092 1.12012 3.75029
4.17303 1.12012 3.74788
2.54938 1.12012 3.75122
2.62728 1.12012 3.75105
3.68657 1.12012 3.74887
2.85385 1.12012 3.75059
2.76292 1.12012 3.75079
3.7147 1.12012 3.74886
3.14789 1.12012 3.74998
1.58478 -1.68114 3.75323
0.312993 -1.68114 3.75583
0.842775 -1.68114 3.75471
1.95267 -1.68114 3.75245
0.398799 -1.68114 3.75566
0.306712 -1.68114 3.75583
2.27215 -1.68114 3.75182
0.795314 -1.68114 3.7548
2.03511 -1.68114 3.75232
1.06688 -1.68114 3.7543
3.41475 -1.68114 3.7494
4.33056 -1.68114 3.74753
2.62383 -1.68114 3.75105
3.72527 -1.68114 3.74877
3.48644 -1.68114 3.74927
2.85289 -1.68114 3.75059
3.6189 -1.68114 3.74903
2.72507 -1.68114 3.75086
3.24984 -1.68114 3.74978
0.229726 -1.19526 3.75596
0.229726 -0.883816 3.75596
0.229726 -0.320587 3.75596
0.229726 -0.766893 3.75599
0.229726 -0.422097 3.75598
0.229726 -0.598187 3.75598
0.229726 -1.45227 3.75594
0.229726 -0.997299 3.756
0.229726 -0.751528 3.75594
0.229726 -0.818496 3.75594
0.229726 -0.617667 3.75602
0.229726 -0.0493626 3.756
0.229726 0.852239 3.756
0.229726 0.83883 3.756
0.229726 0.309839 3.756
0.229726 0.803937 3.756
0.229726 -0.615361 3.75601
0.229726 0.212038 3.756
0.229726 -0.241748 3.75601
4.4171 -0.190151 3.74735
4.4171 -1.56665 3.74738
4.4171 -1.44092 3.74735
4.4171 0.364507 3.74735
4.4171 -1.16411 3.74737
4.4171 -1.23874 3.74735
4.4171 -1.21948 3.74737
4.4171 0.184795 3.74738
4.4171 -0.270644 3.74735
4.4171 0.7449 3.74735
4.4171 0.909304 3.74736
4.4171 0.426967 3.74743
4.4171 0.434143 3.74744
4.4171 0.428138 3.74741
4.4171 0.238492 3.74744
4.4171 0.806285 3.74743
4.4171 0.948367 3.74741
4.4171 0.147814 3.74741
4.4171 0.890363 3.74744
-2.43723 -0.45427 1.96916
-2.43671 0.689882 2.22604
-2.43929 0.0371784 0.966025
-2.44053 0.303545 0.364433
-2.43997 0.615516 0.637154
-2.43712 0.428907 2.02446
-2.44049 0.143224 0.384173
-2.43697 -1.33132 2.09628
-2.43978 0.687589 0.72725
-2.43908 0.0630819 1.07076
-2.43924 -0.979512 0.994159
-2.44278 -1.27956 -0.731827
-2.44436 -0.837154 -1.50107
-2.43823 -1.38158 1.48158
-2.44165 -0.693641 -0.184498
-2.44359 -0.884225 -1.1293
-2.43958 -0.824556 0.828231
-2.44402 -1.33388 -1.33469
-2.44218 -1.55251 -0.4411
-2.43892 0.741448 1.19812
-2.43764 1.07422 1.81984
-2.44147 0.161129 -0.0474979
-2.4391 0.023147 1.10808
-2.43901 0.70263 1.15175
-2.43915 0.719527 1.08367
-2.43928 0.812394 1.02316
-2.43713 0.261936 2.06684
-2.44103 0.301773 0.169153
-2.43896 0.762213 1.17828
-2.44141 -1.04963 -0.017546
-2.44287 -0.0192605 -0.727284
-2.44439 -1.43516 -1.46943
-2.44197 0.0447143 -0.287189
-2.44264 -0.841431 -0.61568
-2.44229 -0.169688 -0.447815
-2.44451 -0.232081 -1.52837
-2.44438 -1.62327 -1.46162
-2.44313 -0.424829 -0.853289
-2.44402 1.12012 -1.30492
-2.44082 1.12012 0.247642
-2.43733 1.12012 1.96916
-2.44415 1.12012 -1.36703
-2.44017 1.12012 0.5815
-2.44266 1.12012 -0.640691
-2.44094 1.12012 0.210894
-2.44454 1.12012 -1.56422
-2.43975 1.12012 0.775364
-2.44101 1.12012 0.158243
-2.44042 1.12012 0.431345
-2.43769 1.12012 1.75579
-2.43729 1.12012 1.96258
-2.43687 1.12012 2.15215
-2.43885 1.12012 1.19595
-2.43942 1.12012 0.905091
-2.44011 1.12012 0.593362
-2.43887 1.12012 1.1806
-2.43953 1.12012 0.864018
-2.44154 -1.68114 -0.0845071
-2.44192 -1.68114 -0.282101
-2.4444 -1.68114 -1.49297
-2.44167 -1.68114 -0.162106
-2.44289 -1.68114 -0.758968
-2.44464 -1.68114 -1.62274
-2.44086 -1.68114 0.234511
-2.44191 -1.68114 -0.290029
-2.44305 -1.68114 -0.822987
-2.4428 -1.68114 -0.706683
-2.43755 -1.68114 1.83324
-2.43828 -1.68114 1.47212
-2.44246 -1.68114 -0.574713
-2.43701 -1.68114 2.09001
-2.43722 -1.68114 1.99051
-2.44185 -1.68114 -0.267994
-2.44081 -1.68114 0.236184
-2.4402 -1.68114 0.542738
-2.43782 -1.68114 1.70162
-2.44473 -0.514383 -1.66634
-2.4447 -0.294918 -1.66634
-2.4447 -0.838363 -1.66634
-2.44472 -1.28584 -1.66634
-2.44473 -0.91679 -1.66634
-2.44473 -1.07696 -1.66634
-2.44474 -0.403637 -1.66634
-2.44475 -1.27935 -1.66634
-2.44475 -0.356942 -1.66634
-2.44471 -0.483663 -1.66634
-2.44476 0.989401 -1.66634
-2.44477 -0.686881 -1.66634
-2.44475 0.884416 -1.66634
-2.44479 0.246867 -1.66634
-2.44476 -0.710096 -1.66634
-2.44475 0.295278 -1.66634
-2.44478 -0.112795 -1.66634
-2.44476 -0.585696 -1.66634
-2.44477 0.8286 -1.66634
-2.43662 -1.42769 2.28034
-2.43662 -0.809426 2.28034
-2.43661 -0.181237 2.28034
-2.43663 -1.51657 2.28034
-2.4366 0.0482642 2.28034
-2.43663 -0.0194452 2.28034
-2.43661 0.536531 2.28034
-2.43662 -0.990245 2.28034
-2.43662 -0.956692 2.28034
-2.43661 -0.405072 2.28034
-2.43666 0.671239 2.28034
-2.43669 0.676717 2.28034
-2.43664 0.670674 2.28034
-2.43663 0.899186 2.28034
-2.43667 0.925147 2.28034
-2.43665 0.466999 2.28034
-2.43665 -0.045554 2.28034
-2.43668 0.431893 2.28034
-2.43665 0.636674 2.28034
4.36688 0.548024 -6.02723
4.36474 -1.01483 -7.07073
4.36679 0.685777 -6.07409
4.36549 0.99917 -6.70893
4.36453 0.66056 -7.17597
4.36573 0.532247 -6.58997
4.36648 0.913885 -6.2229
4.36416 1.09872 -7.35571
4.36637 0.893598 -6.27919
4.3642 -0.911277 -7.33508
4.36579 -1.10866 -6.56133
4.3692 -0.315024 -4.89965
4.36631 -1.14633 -6.30524
4.3692 -0.99594 -4.9011
4.36948 -0.511818 -4.76374
4.36865 -0.391715 -5.1653
4.36965 -0.54778 -4.68162
4.3691 -0.597409 -4.94544
4.36689 -0.843288 -6.0221
4.36467 0.275663 -7.15299
4.36656 0.172625 -6.23445
4.36583 -0.15223 -6.5902
4.36704 0.780236 -5.99865
4.36399 -0.0107421 -7.48826
4.36491 0.53733 -7.03614
4.36667 -0.253271 -6.18189
4.36404 0.588916 -7.46191
4.36834 1.05688 -5.36598
4.36987 0.958359 -4.62025
4.3703 -0.628107 -4.41336
4.36996 -0.64634 -4.57894
4.3671 -0.717894 -5.96909
4.36931 0.470003 -4.89269
4.37044 -0.752526 -4.34459
4.36878 -1.50937 -5.15181
4.36812 -0.771276 -5.47278
4.36804 -1.63048 -5.51112
4.37001 -1.2356 -4.55444
4.36694 1.12012 -6.03097
4.36995 1.12012 -4.56967
4.36866 1.12012 -5.1902
4.36668 1.12012 -6.15481
4.36836 1.12012 -5.33473
4.36683 1.12012 -6.09145
4.36837 1.12012 -5.33029
4.36797 1.12012 -5.52739
4.36797 1.12012 -5.52407
4.36865 1.12012 -5.19298
4.36448 1.12012 -7.20052
4.36654 1.12012 -6.1988
4.36642 1.12012 -6.25491
4.36533 1.12012 -6.81246
4.3659 1.12012 -6.53615
4.36649 1.12012 -6.2447
4.36466 1.12012 -7.14042
4.36606 1.12012 -6.45553
4.36627 1.12012 -6.33232
4.37027 -1.68114 -4.39426
4.3672 -1.68114 -5.913
4.3681 -1.68114 -5.47436
4.36877 -1.68114 -5.14191
4.36924 -1.68114 -4.92838
4.37026 -1.68114 -4.39241
4.36922 -1.68114 -4.92497
4.36901 -1.68114 -5.02017
4.36802 -1.68114 -5.51934
4.36704 -1.68114 -5.98081
4.3678 -1.68114 -5.59022
4.36796 -1.68114 -5.50367
4.36419 -1.68114 -7.34209
4.366 -1.68114 -6.48228
4.36692 -1.68114 -6.02827
4.3654 -1.68114 -6.76918
4.36794 -1.68114 -5.5162
4.36996 -1.68114 -4.53017
4.3688 -1.68114 -5.0987
4.3704 -1.40561 -4.33899
4.37041 -1.0512 -4.33899
4.37037 -0.814997 -4.33899
4.37035 -0.556461 -4.33899
4.37036 -0.438448 -4.33899
4.37039 -0.563563 -4.33899
4.37038 -0.287669 -4.33899
4.3704 -0.302799 -4.33899
4.3704 -0.482562 -4.33899
4.37039 -0.914181 -4.33899
4.3704 -0.0774361 -4.33899
4.37045 -0.183899 -4.33899
4.37045 -0.679674 -4.33899
4.37044 0.568326 -4.33899
4.37041 1.10679 -4.33899
4.37045 -1.48203 -4.33899
4.37043 -1.1305 -4.33899
4.37044 -1.17778 -4.33899
4.37042 0.0355367 -4.33899
4.36344 -0.257728 -7.70677
4.36346 -0.181672 -7.70677
4.36345 -1.28303 -7.70677
4.36346 -0.86826 -7.70677
4.36345 -0.153483 -7.70677
4.36344 0.33552 -7.70677
4.36344 0.364539 -7.70677
4.36345 -0.317787 -7.70677
4.36344 0.164685 -7.70677
4.36348 -0.727541 -7.70677
4.36352 0.631632 -7.70677
4.36346 0.583805 -7.70677
4.36349 -0.0708626 -7.70677
4.3635 0.535417 -7.70677
4.36352 -0.118633 -7.70677
4.36349 0.330988 -7.70677
4.36351 1.11228 -7.70677
4.36345 1.05798 -7.70677
4.3635 -0.156429 -7.70677
-1.80509 0.755736 -1.66541
-2.00624 -0.676151 -1.66569
-1.32181 -0.244087 -1.66474
-2.41513 -0.157995 -1.66625
-1.22852 0.763418 -1.66461
-1.2426 0.0784187 -1.66463
-1.37426 1.00304 -1.66481
-2.0744 -0.519194 -1.66578
-2.09498 -0.725542 -1.66581
-1.11261 1.03407 -1.66445
-0.658869 -0.641302 -1.66382
-1.51462 -1.2183 -1.66501
0.327312 -1.14597 -1.66246
-0.751475 -1.14613 -1.66395
-0.44661 -0.356004 -1.66353
0.236041 -1.20086 -1.66259
0.0205604 -1.32323 -1.66289
-2.07581 -1.52723 -1.66578
-1.51339 -1.06177 -1.66501
-0.873452 0.0857152 -1.66422
-0.787177 0.40092 -1.6641
-0.52862 0.963167 -1.66374
-0.313631 1.00105 -1.66345
-0.677945 0.68786 -1.66395
-1.49801 0.573271 -1.66508
-1.60024 0.871955 -1.66523
-2.03882 0.835719 -1.66583
-0.686117 0.739371 -1.66396
-1.21667 0.467209 -1.6647
-0.582993 -1.46287 -1.66382
0.14619 0.554244 -1.66281
-0.371292 -0.937736 -1.66353
-0.683306 -1.14558 -1.66396
-0.535739 -0.130968 -1.66375
-0.120873 0.170549 -1.66318
-0.129328 0.452482 -1.66319
0.0306901 -0.100658 -1.66297
-0.545763 -0.549412 -1.66377
-0.653433 1.12012 -1.66389
-0.206814 1.12012 -1.66327
-0.935397 1.12012 -1.6643
-0.639481 1.12012 -1.66386
0.209487 1.12012 -1.66268
0.0801935 1.12012 -1.66286
0.297663 1.12012 -1.66258
-0.0885535 1.12012 -1.6631
-1.0638 1.12012 -1.66448
-0.0600751 1.12012 -1.66307
-1.9812 1.12012 -1.66573
-2.15831 1.12012 -1.66594
-1.90804 1.12012 -1.66556
-2.33385 1.12012 -1.66622
-1.26952 1.12012 -1.66471
-2.06915 1.12012 -1.66582
-2.15978 1.12012 -1.66592
-1.35814 1.12012 -1.66484
-2.29063 1.12012 -1.66614
-0.820552 -1.68114 -1.66411
-0.375701 -1.68114 -1.66346
-0.886427 -1.68114 -1.66422
-0.0973028 -1.68114 -1.66313
-0.166859 -1.68114 -1.66319
-0.406331 -1.68114 -1.66351
-0.925607 -1.68114 -1.66425
-0.288101 -1.68114 -1.66336
-0.319593 -1.68114 -1.66343
-0.871165 -1.68114 -1.66416
-0.701561 -1.68114 -1.66389
-1.77569 -1.68114 -1.66541
-1.36505 -1.68114 -1.66481
-0.535351 -1.68114 -1.66368
-1.24077 -1.68114 -1.66465
-1.54057 -1.68114 -1.66508
-2.3368 -1.68114 -1.66619
-1.38148 -1.68114 -1.66487
-1.80179 -1.68114 -1.66545
0.330818 -1.35534 -1.66252
0.330818 -0.479177 -1.66248
0.330818 -1.27732 -1.66253
0.330818 -1.47988 -1.66248
0.330818 -1.35015 -1.6625
0.330818 -1.54736 -1.66253
0.330818 -1.00207 -1.66249
0.330818 -0.67568 -1.6625
0.330818 -0.815895 -1.66251
0.330818 -0.951644 -1.6625
0.330818 0.596844 -1.66254
0.330818 -0.335429 -1.66253
0.330818 0.727629 -1.66253
0.330818 1.08863 -1.66254
0.330818 -0.61075 -1.66253
0.330818 -0.624798 -1.66254
0.330818 -0.0810317 -1.66252
0.330818 -0.353843 -1.66252
0.330818 0.300633 -1.66252
-2.44475 -1.1398 -1.6663
-2.44475 -1.09688 -1.6663
-2.44475 -0.241671 -1.66632
-2.44475 -0.972674 -1.66633
-2.44475 0.0934195 -1.66631
-2.44475 -0.53374 -1.66631
-2.44475 0.662658 -1.6663
-2.44475 -0.683311 -1.66631
-2.44475 -0.75733 -1.66632
-2.44475 -1.51072 -1.66631
-2.44475 0.322483 -1.66635
-2.44475 0.574144 -1.66632
-2.44475 1.03913 -1.6663
-2.44475 0.4554 -1.66639
-2.44475 0.994009 -1.66631
-2.44475 0.31942 -1.66638
-2.44475 0.93385 -1.66635
-2.44475 0.0407731 -1.66639
-2.44475 0.292493 -1.66633
1.40678 -0.308564 -3.19792
1.40771 0.195259 -3.11893
1.40382 -0.688907 -3.4479
1.40643 -0.384538 -3.22735
1.40742 -0.349275 -3.14323
1.40576 -0.436962 -3.28412
1.40388 -1.53377 -3.4427
1.4062 -0.184213 -3.24705
1.40373 -0.135871 -3.45611
1.40652 -0.620052 -3.21949
1.41045 -1.57151 -2.88692
1.40638 -1.3705 -3.23145
1.409 -1.1969 -3.01003
1.40729 -1.44739 -3.15402
1.40928 -0.920921 -2.98618
1.40965 -0.713001 -2.95498
1.4102 -1.2551 -2.90807
1.40786 -0.762612 -3.10625
1.41063 -0.929936 -2.87177
1.40652 -0.340227 -3.2617
1.40711 -0.0882281 -3.21207
1.40578 -0.397218 -3.32434
1.40635 0.0583347 -3.27639
1.40825 -0.589438 -3.11523
1.40926 0.346031 -3.02967
1.41081 0.0211149 -2.89879
1.40858 -0.3793 -3.08745
1.40905 -0.0625994 -3.04809
1.40449 -0.302477 -3.43372
1.41222 0.117603 -2.77995
1.41003 -1.27683 -2.96501
1.40925 -1.58214 -3.03079
1.41158 -0.431815 -2.83368
1.40873 -0.865574 -3.075
1.4098 -1.34603 -2.98446
1.41047 -0.633297 -2.92767
1.41013 -1.60557 -2.95632
1.41228 -1.52546 -2.77441
1.41086 0.426059 -2.8798
1.41226 0.426059 -2.76904
1.40739 0.426059 -3.1841
1.40625 0.426059 -3.28409
1.41016 0.426059 -2.94661
1.41098 0.426059 -2.87089
1.40688 0.426059 -3.22665
1.40905 0.426059 -3.03331
1.41123 0.426059 -2.85876
1.40992 0.426059 -2.95727
1.40408 0.426059 -3.4563
1.40473 0.426059 -3.3765
1.40789 0.426059 -3.11622
1.40617 0.426059 -3.2605
1.40428 0.426059 -3.42731
1.40776 0.426059 -3.12055
1.40499 0.426059 -3.36137
1.40508 0.426059 -3.34233
1.40607 0.426059 -3.27897
1.40846 -1.68114 -3.0821
1.40943 -1.68114 -2.99401
1.41223 -1.68114 -2.75818
1.40895 -1.68114 -3.04088
1.40891 -1.68114 -3.0517
1.40914 -1.68114 -3.03391
1.41004 -1.68114 -2.94204
1.41074 -1.68114 -2.8786
1.40941 -1.68114 -2.99922
1.41056 -1.68114 -2.90143
1.40817 -1.68114 -3.0823
1.40385 -1.68114 -3.45074
1.40439 -1.68114 -3.4008
1.40557 -1.68114 -3.30887
1.41095 -1.68114 -2.84685
1.40966 -1.68114 -2.96611
1.41008 -1.68114 -2.92452
1.40517 -1.68114 -3.35131
1.40512 -1.68114 -3.35579
1.41247 -1.59663 -2.72423
1.41272 -1.46608 -2.72423
1.41259 -1.1726 -2.72423
1.41256 -1.50323 -2.72423
1.4127 -1.04769 -2.72423
1.41259 -0.845772 -2.72423
1.4126 -1.29277 -2.72423
1.41252 -1.40691 -2.72423
1.4125 -0.74803 -2.72423
1.41259 -0.947221 -2.72423
1.41283 -0.996753 -2.72423
1.41275 -0.131323 -2.72423
1.41266 0.158643 -2.72423
1.41265 0.11527 -2.72423
1.41277 -1.1004 -2.72423
1.41268 -0.711086 -2.72423
1.4127 -0.873016 -2.72423
1.41274 -0.373615 -2.72423
1.41269 -0.38611 -2.72423
1.40375 -0.280895 -3.46359
1.40374 -1.21867 -3.46359
1.40375 -0.655334 -3.46359
1.40367 -0.283318 -3.46359
1.40385 -0.66361 -3.46359
1.40377 -1.66322 -3.46359
1.40383 -0.630611 -3.46359
1.40386 -0.81148 -3.46359
1.40379 -0.746325 -3.46359
1.40369 -0.576501 -3.46359
1.40385 -0.437729 -3.46359
1.40404 0.272714 -3.46359
1.40395 -0.510509 -3.46359
1.40391 0.218548 -3.46359
1.40397 0.0123347 -3.46359
1.40377 0.136178 -3.46359
1.40404 -0.0717859 -3.46359
1.40412 -0.509646 -3.46359
1.40393 0.147532 -3.46359
1.39581 -0.619653 -4.14329
1.40223 0.206409 -3.59994
1.39375 0.0233069 -4.31729
1.40286 0.702774 -3.54631
1.40339 -0.318282 -3.50143
1.40205 0.570477 -3.61447
1.39476 -0.664164 -4.23175
1.40326 -0.738692 -3.51214
1.40223 -0.68245 -3.59931
1.40636 0.835162 -3.25037
1.4174 -1.1807 -2.31593
1.41349 -1.37851 -2.64705
1.40591 -1.36904 -3.28775
1.41354 -0.422547 -2.64235
1.42492 -0.339052 -1.67927
1.40769 -1.05036 -3.13742
1.40342 -1.53255 -3.49868
1.41243 -1.21011 -2.7364
1.40194 -1.15783 -3.6244
1.40529 0.322817 -3.34949
1.41403 0.93703 -2.60969
1.40862 0.747602 -3.06762
1.4112 0.963391 -2.84911
1.4076 -0.0156387 -3.15331
1.39668 0.486562 -4.0774
1.39477 0.811865 -4.23935
1.40559 0.337211 -3.32347
1.41326 0.124808 -2.67457
1.39663 0.947883 -4.08207
1.413 -0.389943 -2.69681
1.42264 0.340281 -1.88053
1.41459 -0.926164 -2.56196
1.42404 0.5924 -1.762
1.4156 -1.65846 -2.47645
1.40944 -1.54966 -2.99759
1.41789 -1.41235 -2.28286
1.41447 0.146934 -2.57215
1.42458 -0.339463 -1.71695
1.42185 1.12012 -1.94527
1.41372 1.12012 -2.63439
1.41782 1.12012 -2.28671
1.4079 1.12012 -3.1282
1.3985 1.12012 -3.92237
1.40415 1.12012 -3.44423
1.42345 1.12012 -1.80819
1.40848 1.12012 -3.07702
1.42132 1.12012 -1.99186
1.41511 1.12012 -2.51688
1.39946 1.12012 -3.83931
1.40771 1.12012 -3.13934
1.39517 1.12012 -4.20375
1.39939 1.12012 -3.84493
1.39753 1.12012 -4.00108
1.40158 1.12012 -3.6599
1.40691 1.12012 -3.20674
1.3957 1.12012 -4.1571
