# Exported By Aspose.3D 23.9.1
3.301464331598835 -0.5268619589675072 1.1873300120675037
3.242419559061117 -1.5758247939887131 0.8493795223981601
3.084209444344019 -0.3472326454849733 0.8734962682112698
3.0473270568424757 -0.3517872586609837 0.6623950922628214
3.153137837232989 0.16712631277843482 1.2680169535787649
2.9954118617844085 -0.7781999988916934 0.36525167317443996
3.0641153290097902 -0.0792018952222257 0.7584849670442304
3.2118219014994263 0.4416115081474772 1.6039028822096322
3.117983654361352 -0.851167117124785 1.066807383200521
3.2961811751082455 -0.4268953010723147 2.0867442346094345
3.2666759643075287 -0.8113677643608428 1.9178672958164258
3.2779750733064104 0.7409710043809108 1.9825392261987473
2.608484147097745 0.06771820781699806 -1.8493797840213082
3.199574161007644 0.9902937582653062 1.5338013352200688
2.9538107697573808 0.9869427947361622 0.1271423737892585
2.655141865143307 0.7734272600416832 -1.582328223270875
3.133614615271718 0.4861409222832561 1.1562732354109975
2.928160335456146 0.40143824149219864 -0.01967124678648524
2.864435160763208 0.9612634118959436 -0.38441063125927033
2.6159558422484745 0.270072538691726 -1.8066145581372361
3.0375694177512496 0.11365364600907774 0.6065459668082327
2.833213597494636 0.2375294374641712 -0.5631113382205161
3.179389918807017 1.0951839446532077 1.2274856786738795
2.818020296693706 1.0951839446532077 -1.470408618579975
3.0259704280836868 -1.7064580678450412 0.24887403561724636
2.919084007270711 -1.7064580678450412 -0.8081811487890413
3.4584803960389587 -0.667922810916279 2.418823215881283
3.461459756396088 0.3114063554027682 2.418302679147862
2.6184480517212254 -0.9860270224767722 -1.9673691099531254
2.658651983528559 0.6206320537349859 -1.9743933100582174
2.93398150651304 -0.6320742952032501 0.013645953950171208
2.933976138780778 -0.6740819453625887 0.013615231042109793
2.2392235585396927 -0.693570216951505 0.17783095002534718
2.24952541090202 -0.6348255579263625 0.23679493100094007
2.276263084884065 -0.6300740271806724 0.26611439251633806
2.638299615311403 -0.6300740271806724 0.13993235458621892
2.303747579543029 -0.6300740271806724 0.13721789839691112
2.6959031102972406 -0.6300740271806724 0.2552841155933596
2.5260496161932147 -0.6300740271806724 0.26171468735544706
2.676725176317081 -0.6300740271806724 0.07605394498791718
2.2428471996797983 -0.6300740271806724 0.014101894900349007
2.569211896557641 -0.6300740271806724 0.11337674926531663
2.383367053110961 -0.6300740271806724 0.0056416355925806155
2.660058723612376 -0.6300740271806724 0.14252866658477312
2.6415728767278543 -0.6300740271806724 -0.3914755720673541
2.692711790215748 -0.6300740271806724 -0.24953524483701767
2.8180310407768534 -0.6300740271806724 -0.2923068412677534
2.74258907921077 -0.6300740271806724 -0.039005233958459895
2.5229107960260895 -0.6300740271806724 -0.31513343467641103
2.9225104388676875 -0.6300740271806724 -0.037984207500223126
2.6442242131404883 -0.6300740271806724 -0.1836982687410461
2.6197214238865056 -0.6300740271806724 -0.05635818497495078
2.6641061630188614 -0.6300740271806724 -0.349140370181115
2.889438305016781 -0.6300740271806724 -0.01442275223509984
2.542269859856271 -0.7300740450620644 0.22951030815675527
2.5598971087939115 -0.7300740450620644 0.11019998982934379
2.3155385070158085 -0.7300740450620644 -0.2184564777313598
2.352689697673067 -0.7300740450620644 -0.14427793403169975
2.4859169610335647 -0.7300740450620644 -0.007884176892111884
2.5842566122163335 -0.7300740450620644 0.2834865404278256
2.2887299608417933 -0.7300740450620644 0.24039093007297263
2.270871995485413 -0.7300740450620644 -0.17457701582376792
2.328297661581741 -0.7300740450620644 -0.194308534292987
2.233447684399729 -0.7300740450620644 -0.09696690169526814
2.688279737136614 -0.7300740450620644 -0.31407776415507094
2.3781267087628306 -0.7300740450620644 -0.24920388291292206
2.4083880114521365 -0.7300740450620644 -0.180484167979082
2.6391407111743908 -0.7300740450620644 -0.2861997102290793
2.420876451904078 -0.7300740450620644 -0.367993020626693
2.5836710581325204 -0.7300740450620644 -0.13827990163303852
2.4794527201397822 -0.7300740450620644 -0.244238984641432
2.4413014322608824 -0.7300740450620644 -0.23754402291044896
2.8337735878773396 -0.7300740450620644 -0.40792991462028716
2.8543771576107484 -0.7300740450620644 -0.12157526494629858
2.694535861754048 -0.6925327344870137 0.28355465041292677
2.5229648796758837 -0.6794936436119251 0.313530558614855
2.2752339109027044 -0.6528294028284117 -0.37154681062593287
2.393140558034459 -0.6555073741785425 -0.39214679080911113
2.6720723769085297 0.5632379073769708 -1.4854250614868807
2.702086267714102 0.6288829286939844 -1.313636690029306
2.6344593389381297 0.788369978116072 -1.7007081309284224
2.699512828784424 0.7353586089824531 -1.3283660993431046
2.643576870209227 0.8099546312148893 -1.648522765861242
2.681279201516998 0.7221459784315851 -1.4327286144973872
2.694133700847375 0.7413761675928507 -1.359154231216897
2.6710900557515362 0.7247724387525742 -1.491047503205662
2.6963684470329943 0.7240618245182644 -1.3463633734658829
2.639907992231791 0.6364023239685332 -1.6695220617173883
2.711929569397561 0.16778497739680992 -1.25729728448802
2.7524705826729 0.30828954422847377 -1.0252555711051856
2.737096216316064 0.6365965599813207 -1.113252738008406
2.727462442940414 0.3558171578541165 -1.1683928812812316
2.726641182807438 0.29137560865039913 -1.1730934694755757
2.716423557358514 0.5249133378292876 -1.2315753653218884
2.6951678333419675 0.25104307855629576 -1.3532352406312311
2.736685833336673 0.32875319860719565 -1.115601617870737
2.709732351063053 0.5525348749325153 -1.2698733467475576
2.730779957776564 0.15716842654053131 -1.1494046576390406
2.2437630303597342 0.6881888905306182 -1.00044605937337
2.252820923765681 0.4636846348855033 -0.9486020393119985
2.2607958991627193 0.2639071269096852 -0.902956240013727
2.2288942103584324 0.4121491533552223 -1.0855496665686513
2.235551958441937 0.3981723954806753 -1.04744318753036
2.195335446629095 0.45214768738535754 -1.277627574979047
2.207053534658473 0.1798765474536464 -1.2105575882117978
2.2111303273929863 0.24574229744065745 -1.1872235396817743
2.2549790700651817 0.5443499800190803 -0.936249610879442
2.2110587395491152 0.4289922778323755 -1.1876332819306012
2.235336941433033 0.7366356674494843 -1.048673865086782
2.1954598722016687 0.5725378633678507 -1.2769154091815975
2.199945063084959 0.8121348423827733 -1.2512438412230105
2.1220397531594872 0.6755216789986012 -1.6971449210493463
2.1221282274515927 0.5059983128076638 -1.6966385270381494
2.159992199408687 0.5739278751764513 -1.4799192045897303
2.1682451393489877 0.5478436126480024 -1.432682439411047
2.193169912336441 0.7022275670367254 -1.290022289542394
2.1777535061831395 0.5511648742084996 -1.3782600766377118
2.1982987154545492 0.8052496081041318 -1.2606669240253463
2.645178989946506 0.8620676398277283 -1.0689117408931437
2.1977100334375184 0.8620676398277283 -1.2742267680114963
2.447849420462845 0.8620676398277283 -1.0285214884742808
2.4350884974382496 0.8620676398277283 -1.322392596995473
2.359459400785864 0.8620676398277283 -1.110717308456834
2.5458646283902815 0.8620676398277283 -0.9722715113082754
2.5956965976092836 0.8620676398277283 -1.6952070219252982
2.4825154974475385 0.8620676398277283 -1.5549048875249996
2.5898898509333517 0.8620676398277283 -1.5291793312326059
2.5914555953163725 0.8620676398277283 -1.4207593177776672
2.604978582335897 0.8620676398277283 -1.4282248773882005
2.5355863854761926 0.8620676398277283 -1.5297984058034435
2.408118322946908 0.13649719953536987 -1.1508896287368853
2.240818707924886 0.13649719953536987 -1.4341591185800917
2.281700773506338 0.13649719953536987 -1.4558338070422339
2.450363932591994 0.13649719953536987 -1.1378697584633388
2.216715255369502 0.13649719953536987 -1.4856067288381347
2.170500915376692 0.13649719953536987 -1.447011288594401
2.4836789660360417 0.13649719953536993 -1.3503836299969127
2.4309306867626503 0.13649719953536987 -1.5335312682571751
2.499980769553284 0.13649719953536987 -1.5185796837330128
2.5262738411877583 0.13649719953536987 -1.5685802976437955
2.568767949961426 0.13649719953536987 -1.397972327508654
2.32805945152137 0.13649719953536987 -1.6196645009810502
2.5441956076661865 0.5179780876020059 -0.9061730114763474
2.6800154690220133 0.4366624228074565 -0.929902688015999
2.683736845343759 0.35747682390442925 -0.9305528657993941
2.6977301526904998 0.24265840949599027 -0.9329976971645811
2.6334205555594714 0.3625266747090141 -0.9217618887704273
2.615629620700895 0.7713343293610999 -0.9186535574459974
2.5973426172425578 0.7776169924813404 -0.9154585558268383
2.4110770810473188 0.6468841067076763 -0.8829152968345615
2.4744972352527688 0.592899597623179 -0.893995706800873
2.713067546843218 0.8079159495940323 -0.9356773597601102
2.146064650385314 0.559831093342163 -1.7224136788259332
2.222353232195569 0.43174748093071724 -1.7357423875431612
2.322286942961232 0.24903491282150053 -1.7532022392040578
2.3479879252871183 0.20004346272612028 -1.7576925691989238
2.118479231393282 0.745020417610801 -1.717594110735102
2.4951189099936313 0.6830092703949575 -1.7833984611148281
2.373025677610507 0.7844754113643702 -1.7620670234060105
2.447993917140563 0.7377908046587348 -1.7751650494018898
2.495002493091825 0.5788813779004829 -1.783378121413432
2.3457783532390866 0.8044606048048799 -1.7573065252914464
2.770105751766316 -0.8648909400874318 -0.9243180807680047
2.7700868623486614 -1.058075934084305 -0.9244261968934524
2.802718979124582 -0.9814753776103478 -0.7376518825410882
2.8325014377375783 -0.887245137094968 -0.5671879703968814
2.7807872360804384 -1.1851197993104448 -0.8631811670110676
2.796689328243816 -1.067989823247788 -0.7721634012627381
2.822137593010191 -1.1774427900778057 -0.6265068312082807
2.8082114088860552 -1.340752596431716 -0.7062152212337014
2.8451973526576984 -1.0011497188297847 -0.4945211918190623
2.8138487766638813 -1.5492146233459703 -0.6739489876735018
2.8372426868321488 -1.124317850483511 -0.5400507927846199
2.841117134494028 -1.462705583939986 -0.517874869889063
2.137842555365092 -1.6916584522324338 -0.41005256536850465
2.1395500950684583 -1.3991585163766964 -0.40027923195235937
2.118112043004243 -1.2722447383361366 -0.5229828096221576
2.124099615185726 -1.1059021754287452 -0.48871213400184277
2.1333935941557827 -1.4669414315449751 -0.4355167939122747
2.113501553533494 -1.2114560785826296 -0.5493715669204067
2.1194672582401433 -1.0937071639863525 -0.5152260527368075
2.1063400925851714 -1.1284820151144184 -0.5903611529643994
2.0932706603452833 -0.9850451236285729 -0.6651658082168295
2.0971523860719707 -1.1776859280145822 -0.6429482283373359
2.1062630100431177 -1.2292939394056135 -0.5908023452731747
2.091119148502331 -1.107565338845125 -0.6774802759557104
2.2380061749870626 -0.7926403258388621 -0.41011801571784845
2.464942844072792 -0.7926403258388621 -0.5351855852048505
2.433793383974833 -0.7926403258388621 -0.428723322441896
2.5451188734108454 -0.7926403258388621 -0.43287485356022115
2.4274706458463666 -0.7926403258388621 -0.5829864935331296
2.549900881559486 -0.7926403258388621 -0.7676970667207345
2.7272265292859763 -0.7926403258388621 -0.6859774551880481
2.676613909645401 -0.7926403258388621 -0.6864064193313247
2.769637124845729 -0.7926403258388621 -0.698247388055892
2.802361153452694 -0.7926403258388621 -0.5023404061756962
2.147777092177258 -1.7064582135135549 -0.3811124058667378
2.1293958047051045 -1.7064582135135549 -0.7405055595269422
2.1023341612614166 -1.7064582135135549 -0.7699724796940143
2.4507747622604295 -1.7064582135135549 -0.43747138097600746
2.4437836750444437 -1.7064582135135549 -0.5230862644725303
2.593394933885747 -1.7064582135135549 -0.8306395357093709
2.3293491211139363 -1.7064582135135549 -0.7961179266067959
2.2982092332806077 -1.7064582135135549 -0.7553249265693269
2.6826187828921113 -1.7064582135135549 -0.7559594558687551
2.5080324127749534 -1.7064582135135549 -0.6683859908608282
2.63157884582965 -1.3501462805071183 -0.4338038492361067
2.744323357904367 -1.2196735815038617 -0.4535019110423983
2.750574662837447 -1.1592636244208352 -0.45459410248192644
2.6601995022192537 -1.5977437628532694 -0.4388042829434736
2.8334947245574797 -1.0202571595957886 -0.4690814107392034
2.6592470806596977 -1.3203595707441276 -0.43863788141846327
2.5618005587782426 -1.5516268168265304 -0.4216125949942605
2.691109129454047 -1.1766640573991063 -0.44420463225073653
2.6002016364818306 -1.3575034930562966 -0.4283218067165321
2.756805842589796 -0.943019860157472 -0.4556827777675717
2.2353793464894522 -1.102843316078313 -0.3645821897334876
2.262120189581036 -1.0262656705443107 -0.3692541934547976
2.28276819298118 -1.2246042843361364 -0.3728616918568751
2.4632345958376973 -0.8564751247390481 -0.4043917263748388
2.4635426282586477 -0.859526985472272 -0.40444554399801674
2.4798196317496863 -1.2036317119860835 -0.4072893668581061
2.300990162365327 -1.0618363458801479 -0.37604532778341504
2.482070634449146 -0.9550455683835366 -0.40768264888562245
2.5133502467535567 -1.0827009077503629 -0.41314763982053193
2.460357764307094 -1.180001379963468 -0.40388910319386695
2.256686396490556 -1.0698069008796478 -0.8544378724977525
2.3553408261593605 -1.52948265532673 -0.8716741975065716
2.0661802303369767 -1.6329420796991712 -0.8211537492502639
2.2418825653499894 -1.4185570678824484 -0.8518514336954494
2.171128560741884 -1.0743588285535521 -0.83948970778821
2.128485827678523 -1.1268153546580488 -0.8320394188471871
2.412052090844929 -1.6640741458419277 -0.8815824580181695
2.110631905107773 -1.2214795220101533 -0.8289200859075021
2.389463959582066 -1.2544347624915115 -0.8776359918220177
2.2160396586672357 -1.6474551706747853 -0.8473363121722505
2.7304795995070754 -0.8673203254628549 -0.9372162501294309
2.5100770560142727 -1.1082342662921938 -0.8987088066708266
2.3679223101197437 -0.9445186725344618 -0.8738723608061054
2.557260046819689 -1.1724375710722805 -0.9069523428925705
2.264833974511986 -0.955909797115075 -0.8558613696816452
2.3074078074965474 -1.0743480935507057 -0.863299620803836
2.5190371586055837 -1.0484666215719074 -0.9002742633958278
2.4310392935823097 -1.0181424576564353 -0.8848997910410101
2.2840170126441404 -0.9580682543808856 -0.8592129179193918
2.7505873936409673 -0.8920190549003424 -0.9407293663277173
3.137883497543026 -1.139850722582194 1.1807051533735111
3.007732556385438 -1.016902321595653 0.43576901961393166
3.0670927666230963 -1.1947464985373462 0.7755250376672737
3.0875034481562516 -0.9862653983073802 0.8923482742376265
3.278132646949631 -0.8667862572866282 1.9834397182778463
3.25999139275644 -0.8200434493776197 1.8796058493866326
3.0910163899607714 -1.231314597842008 0.9124550615009843
3.293966111038212 -0.8001990477362775 2.074064645130182
3.025128645260463 -0.9310067338887636 0.5353378362036489
3.195822313171635 -1.1272747982373503 1.512325631297876
3.1971829810585755 -1.3048779801174728 1.5201135939972863
3.2331720156776083 -1.5035438227827316 1.7261015958387835
3.2566817590211268 -1.415800540200133 1.860662722759837
3.2412888921437615 -1.6665412948007627 1.772559612347316
3.250994989215532 -1.7011936545919397 1.8281137432835304
3.37328714012316 -1.4167969103762224 2.528069051143863
3.2782538542772084 -1.613095208397922 1.9841334644558308
3.230735501090688 -1.6943940659042378 1.7121558821921088
3.2654711307918514 -1.3916789126816849 1.9109698551310992
3.2636318069843107 -1.0790655441554766 1.9004422419326503
2.5824897344971838 -1.0522808659455585 2.1625175977969118
2.512399762865059 -1.5004589834981554 1.761348370601435
2.666010769415762 -1.5641020491014992 2.640561292959368
2.6791290855299805 -1.4369223504784197 2.715645711102218
2.4943709026783525 -1.603107610976149 1.658157803678713
2.5169618624912324 -1.5546455742645553 1.7874601514853914
2.604638944845043 -1.5789969999147981 2.2892915340866544
2.558636845834254 -1.6713054774118798 2.025992433233978
2.556325423466146 -1.158251876447523 2.012762701454329
2.630995322180099 -1.2384737058066 2.4401457473351953
2.349874404040303 -1.1971675250217941 0.8311129734235636
2.299653319868322 -1.243628874027064 0.5436659527294028
2.552258794242361 -0.8502144147597045 1.9894868109808805
2.479749490335969 -1.13830617646517 1.5744702153788226
2.538049000615765 -1.109267398153059 1.90815517686768
2.4993999796633646 -1.0797738291084238 1.6869423912681194
2.5406098225480553 -0.9065161420493208 1.9228123800543786
2.507536689415565 -1.0981158897236962 1.7335139262137569
2.2948118732546883 -1.2461123959182923 0.5159552923985105
2.554685515881231 -0.9161687511361329 2.003376473393553
3.135319799828452 -0.7926403258388621 2.116232667055098
2.734822414915344 -0.7926403258388621 2.5374482241033114
3.0494985554616196 -0.7926403258388621 2.4217679878701377
2.595381183048255 -0.7926403258388621 1.5900540666657692
2.666641937866702 -0.7926403258388621 2.0825114577936694
2.90255426125212 -0.7926403258388621 2.199691203414524
3.138878761958014 -0.7926403258388621 2.370618881783203
2.9897916105975573 -0.7926403258388621 0.5348999948231865
3.2178939465329073 -0.7926403258388621 1.7790052129627167
2.9106058949506965 -0.7926403258388621 0.9015780004863273
3.024291019318068 -0.7926403258388621 0.6986639518552522
3.3482831269164186 -0.7926403258388621 2.4033933934104366
3.2920804135821093 -0.7926403258388621 2.4049573049944923
3.0054932887447494 -0.7926403258388621 1.408563212894163
2.6376227428902883 -1.7064582135135549 2.1466753753856422
2.9061803516943785 -1.7064582135135549 2.0335619615551623
2.860062858396035 -1.7064582135135549 1.9505054851448251
2.9991307006004413 -1.7064582135135549 2.5312373368368037
2.4217766659651296 -1.7064582135135549 0.8320485759950002
2.9673752294184252 -1.7064582135135549 2.398441485173116
2.7183021839410695 -1.7064582135135549 1.316218537055205
2.4994882009936172 -1.7064582135135549 0.6638965201270934
3.009191466440331 -1.7064582135135549 0.94732184822051
3.062011235592111 -1.7064582135135549 0.9265895611333108
2.8525545849055294 -1.7064582135135549 1.057770065668994
3.001995055556471 -1.7064582135135549 1.2114815594793402
2.6664532430537893 -1.7064582135135549 1.0746471808434057
3.011565227414673 -1.7064582135135549 1.1091272711003812
3.0367072120949232 -1.3610693968280076 2.679568812190506
3.139990909671001 -1.2457079877891069 2.6615236812241347
2.810471302641399 -1.1941316514361733 2.719095443316178
3.097031055553224 -1.0415724794854935 2.6690293787547685
2.571510282204674 -1.670034131850073 0.30504497259443664
2.475992957531147 -1.5666016472097273 0.3217332077539268
2.834874746539629 -0.8928668628696008 0.2590314548530528
2.614632281153093 -1.2186022138094432 0.2975109460557104
3.172341361789373 0.40368735735466266 1.3779416302613918
3.11356279547709 0.2851331444654678 1.0415146699239994
2.8485657526910777 0.6589314417010497 -0.47523123247248633
3.207260086606577 0.545690344087669 1.5778036069332289
3.143085621391265 0.8205364182897318 1.2104924998715159
2.803492845443114 0.5532691388650985 -0.7332120259889281
2.831550224883075 0.3014639409290504 -0.5726218743021836
3.134201713497042 0.3917556817596755 1.1596442686830981
2.952175670824603 0.6384576447305943 0.11779394669360765
2.864894409818992 0.2991100360116597 -0.38177198655025735
3.418370374503289 0.7545136775472239 2.7861214838223187
3.306073235486049 0.12177323574418272 2.1433738377937255
3.1965652591995144 0.10060089221642904 1.5165903364908173
3.280120993340178 0.19498813910164503 1.9948327200555265
3.1487555628565227 -0.16448506499143345 1.2429451657346677
3.3052150316734883 -0.04022776529345645 2.13846179386132
3.3317829605656053 -0.052954335470473735 2.2905268767717732
3.3772417659169873 0.4924056863784745 2.5507164095290333
3.364673379477163 0.538714274258506 2.478779574189579
3.320616442746479 -0.14506146929851937 2.2266138233726283
2.9292802439047616 -0.21613072961301427 2.8691751384501254
2.917094231494751 0.44117519144324246 2.7994268718464035
2.702280392593127 0.07883424221362759 1.5699112270427809
2.81603669100991 0.3268428749222409 2.221010566422109
2.682490654841379 0.332910750895817 1.456642024756991
2.630242004571967 0.1396420146015044 1.1575899094250068
2.7598197274051497 0.37214553000176553 1.8992452806806113
2.755058510506306 -0.18912345152289378 1.8719938210197067
2.744049328731046 0.0858780118938624 1.8089813014428457
2.8561097126907997 -0.08822838605327826 2.450373848336978
2.790368452973524 0.621593259468443 2.0740949840664786
2.767728147963835 0.7236256960162306 1.9445101800572426
2.4339286148638135 0.8475149365398431 0.03396405196270669
2.590246700241434 0.47806308071704817 0.9286714531257705
2.311084718155727 0.4495348188843242 -0.6691493677476588
2.49811990997875 0.3254149056242341 0.4013714871985953
2.7069893590884466 0.6657726514031872 1.5968636245533674
2.370071055703913 0.4327854028997765 -0.3315332010426131
2.3361893209365916 0.36097179280409797 -0.525459826917895
2.4287904153832347 0.43438030531503097 0.004554882237907343
3.2608241175444137 0.8620676041770423 2.615784156799429
2.7508472131127437 0.8620676041770423 1.5685453786099908
3.2033740616234603 0.8620676041770423 2.4272985842554005
2.9761352222329975 0.8620676041770423 1.6014966438825318
2.7794793525519044 0.8620676041770423 0.1094679849220569
3.210169757899981 0.8620676041770423 1.7790380420849674
2.9473243498396977 0.8620676041770423 0.8595257162067772
2.6442143600815955 0.8620676041770423 -0.5044762167148991
2.8055561333534116 -0.33417084228281624 1.2003431835562586
2.7765435560494782 -0.33417084228281624 1.5731394605347733
3.051116133224838 -0.33417084228281624 2.414648140737043
3.0112430394428302 -0.33417084228281624 2.453855658524473
2.6429841714331515 -0.33417084228281624 -0.49079060880919023
2.851456766054805 -0.33417084228281624 0.8828941170851117
2.769344542409946 -0.33417084228281624 0.04820229780881413
2.9766480173738032 -0.33417084228281624 1.0493457300328686
3.2506465119443204 -0.3226406073134629 2.9362908685350675
3.024475511565533 0.5074050462914208 2.9758061522796595
2.346061946534364 0.33117714336582926 -0.732484202179464
2.4941580833027643 0.5375701207034751 -0.7583586991577695
-0.12884670727999614 -0.7683864332206941 1.1922737834680206
-0.22682453080169496 -0.8272843613769575 0.6314853623343667
-0.2703196242540168 -0.9963840524023192 0.3825357132458013
-0.20218358143395943 -1.1204004020411373 0.772520941555071
-0.14749686491076686 -1.1982551972652207 1.0855272557771158
-0.45043079506218975 -1.2405697845225063 -0.648353272399816
-0.3622076472464625 -1.4577373065551333 -0.14339696705725224
-0.5323430684078931 -1.074314399022367 -1.1171884923496869
-0.37292113995839915 -1.405922234927554 -0.20471699282229977
-0.31645802521809785 -1.5241358147110589 0.1184567604759599
1.2653023924319853 -1.4264328653331595 -0.24848302826352536
1.0490527053201077 -0.8869137947242558 -1.486215366533516
1.0568037432127686 -1.2338394763323561 -1.4418513242866522
1.2720460047925424 -1.4764077895207133 -0.20988511301613688
1.2382064368937904 -1.567711307230974 -0.4035701447068384
1.39320234139214 -1.012620873826122 0.4835684489215697
1.5384085907522347 -1.139301316666485 1.3146747175697315
1.318225343322958 -1.2063497152708116 0.054428151074007766
1.556176012565436 -0.898985050072256 1.4163687955570234
1.2607172647609504 -0.9890760964273305 -0.2747265843552421
1.0430905942351583 -0.7443866431713104 -0.3062772746901623
1.1961825319624073 -0.7443866431713104 -0.1581259712897598
-0.12977151291586742 -0.7443866431713104 -0.9049480903854406
0.9644830718333424 -0.7443866431713104 -0.02824572220398744
1.048604977445636 -0.7443866431713104 -0.35814295821750763
0.640107781022316 -0.7443866431713104 -0.9699193545989073
1.1074869928975848 -0.7443866431713104 -0.48669590634733095
0.7442747407862084 -0.7443866431713104 -0.45848907063790234
0.3114753745377028 -0.7443866431713104 -0.19494104229803144
0.048341093183479455 -0.7443866431713104 -0.5300489476371074
0.284574137427808 -0.7443866431713104 1.193423085535438
0.4794560091325293 -0.7443866431713104 1.2983067430343767
-0.49805863394180383 -0.7443866431713104 -1.0680650900957114
0.3834606050523377 -0.7443866431713104 0.4238268619529011
0.2502217663826707 -0.7443866431713104 1.2393012305229885
-0.033650132031085134 -0.7443866431713104 0.011431016914903877
0.7045393514678522 -0.7443866431713104 1.3828696410060435
0.38111827589039404 -0.7443866431713104 1.499729349047339
0.38361454213831897 -0.7443866431713104 1.3909026012701882
0.3700095177799006 -0.7443866431713104 -0.015295834458747493
0.8963675262895716 -1.7064581215381622 0.11880497172024988
0.4116641875344717 -1.7064581215381622 -1.325217186040179
0.7150723953241632 -1.7064581215381622 -1.2776841691252845
0.45323065791495804 -1.7064581215381622 -1.2907445422616648
0.956115724886735 -1.7064581215381622 -0.055087159483073744
1.2985325076442746 -1.7064581215381622 0.4959168276333527
0.8665003819580963 -1.7064581215381622 -0.27904387248012713
1.0083005620987495 -1.7064581215381622 -0.4238835081366632
1.119870220094439 -1.7064581215381622 -0.7544854255930629
0.5427787951395491 -1.7064581215381622 -0.26649852959862697
0.29507063875913886 -1.7064581215381622 1.1942386038866772
0.7775287762214727 -1.7064581215381622 1.3611572588235537
0.6394874593124965 -1.7064581215381622 0.9399395818156707
0.37237777933059124 -1.7064581215381622 0.6368775865132954
0.6608017031051694 -1.7064581215381622 1.0922417766867767
0.2495393765971048 -1.7064581215381622 0.17826459603047684
0.7623542779901886 -1.7064581215381622 1.326682241146729
0.09534630549471357 -1.7064581215381622 0.9365388603828263
0.8414003732144717 -1.7064581215381622 0.9630570677226018
-0.10826730762288916 -1.7064581215381622 0.6318031672964578
-0.406453218642308 -1.5819799086663684 -1.276451810087627
-0.3594434147410346 -0.9049001104747068 -1.2846651006921612
-0.5005355759915449 -0.8534534263293412 -1.260014265627928
0.3350446745797846 -0.8441924320146528 -1.406002184143069
0.1633286721466949 -1.1605828192456666 -1.3760009224404293
-0.30779428596680236 -0.7459628611166707 -1.293688948249251
1.3636775339000988 -1.3206227186621406 1.4893660562389868
1.0467693545642691 -1.1992560054409203 1.5447344848609261
1.4560132605586191 -1.017684051617202 1.473233673346687
0.9390319682416155 -0.9892120402904041 1.5635577597824568
0.27311852030947575 -0.8652221239627393 1.679902441347612
0.8962866307190274 -1.0283146000847858 1.571025986618698
2.8926509348462837 -0.8702927964031422 -0.22291490479215914
2.867309612484955 -1.2072718411785137 -0.367959232458308
2.96372522212932 -0.776727535298206 0.18388794733721997
2.9367940162871315 -0.8096472262335195 0.029743716467098308
2.918195145628509 -1.111627901591634 -0.07670931907560036
2.915680555396877 -0.8635420011995454 -0.09110190065845838
2.9288840309286894 -0.887113312153325 -0.015530105151426096
2.8528426428381035 -1.0315640276589584 -0.4507627995285188
2.8975581758538453 -1.031033729294782 -0.19482767783183075
2.9058043020876685 -0.8792233014928532 -0.14762991054955618
2.922445132727921 -1.3416224147732563 -0.05238396964692654
2.9181582552970764 -1.248326670731839 -0.07692046564655387
2.949712509322059 -1.5046287826091584 0.1036843778893376
2.9308787466204427 -1.5434737193612218 -0.004113092563439433
2.9242942301709633 -1.3984108284235943 -0.04180042189076963
2.931786414581337 -1.2452480932965346 0.0010820621035040612
2.9147412715879275 -1.3710791846463488 -0.09647801271031856
2.9324258308224005 -1.5503516519825329 0.004741843446462474
2.917729455901604 -1.624738787840117 -0.07937475430336409
2.9535274451552387 -1.4892230130708284 0.1255196552723933
2.2113810749384935 -1.6814121454757585 0.018470903343083822
2.2256593667527382 -1.097666893660477 0.10019454849818193
2.210511813829328 -1.4465664325255518 0.013495575246644367
2.243732045289022 -1.2870521911355641 0.20363585554780328
2.23363940344173 -1.3864426112661152 0.14586931794400643
2.2470088526362835 -1.1218111575306864 0.22239108512100025
2.2427105033063794 -1.3619427000477418 0.19778892822718275
2.230126641942577 -1.4817941992173003 0.1257635743434411
2.2270298739419205 -1.1618186469417098 0.10803882319633101
2.2495747961906933 -1.5782557104827717 0.23707759407155748
2.23997687401009 -0.9005465899345476 0.1821426483008516
2.172413273469878 -0.9469420086088542 -0.20456633536346291
2.202482203991926 -0.9353912323576608 -0.0324629325092375
2.2122283536668856 -0.9439791458669181 0.023320412447352057
2.1805229884204747 -1.0128417680771171 -0.15814933565833136
2.2027233914355846 -0.7629814937319099 -0.031082465061320196
2.152044676015727 -0.7904974662897302 -0.32114863052214393
2.227079185271233 -0.9736484802885342 0.10832106295100491
2.205713518796017 -1.1700413024832625 -0.013968085375598467
2.209478460142031 -1.1528601056522771 0.007581042110678157
2.541322611607401 -0.730074077140813 0.012371820068900086
2.584371473725609 -0.730074077140813 0.06496685156845133
2.6533407466318737 -0.730074077140813 0.24125755900703072
2.6265189383648875 -0.730074077140813 0.20303991505307128
2.2116283312102447 -0.730074077140813 0.007121808601689317
2.3658463314339393 -0.730074077140813 0.14764324551947322
2.4429279443587397 -0.730074077140813 0.032658157775830615
2.531602663194635 -0.730074077140813 -0.3969820933264212
2.7143121528721066 -0.730074077140813 -0.19510945281380435
2.6741617743758725 -0.730074077140813 -0.23387741999459058
2.925965901634223 -0.730074077140813 0.05699357297500618
2.558470068576168 -0.730074077140813 -0.33114241466935423
2.7729902465643583 -0.730074077140813 0.0541715867278631
2.8486981576722634 -0.730074077140813 -0.19338055846233382
2.2615631866057493 -1.7064581818466138 0.21229286507446743
2.5240641658258856 -1.7064581818466138 0.24222476914879926
2.3073922248435257 -1.7064581818466138 0.00555239048872945
2.1719391177312533 -1.7064581818466138 -0.2560487414916144
2.2742769641103964 -1.7064581818466138 -0.155007813550279
2.2017260113152517 -1.7064581818466138 -0.29993980810142107
2.2812404275360496 -1.7064581818466138 -0.2311402092599641
2.621057160130145 -1.7064581818466138 -0.18281767118368172
2.7741705675362613 -1.7064581818466138 -0.14932644787790372
2.5803331234535065 -1.7064581818466138 -0.18591381980734153
2.561429332775755 -1.7064581818466138 -0.37486250324858417
2.6196587665688216 -1.7064581818466138 -0.3020851470611402
2.5854795272092277 -1.7064581818466138 -0.3294192029875864
2.8782841682304197 -1.7064581818466138 -0.1683994283426241
2.8483458379391076 -1.2519438731333343 0.25668184435436125
2.6965918252788326 -1.2437674577574407 0.28319544413492465
2.87910557618684 -1.5741926459565576 0.2513076774710051
2.8502428408282685 -1.0591956280128463 0.2563504107764012
2.8892720781860897 -1.4379223102058476 0.24953144394379123
2.8041198518731782 -1.2306836374721182 0.26440875762602445
2.8166465279538433 -1.5474306010448462 0.2622201678789644
2.6949065704942803 -1.301269992797712 0.28348988228586786
2.8538969880988825 -1.366102288086739 0.25571197890515185
2.9393090553652597 -0.7753095697183252 0.2407892672863105
2.4638880802654053 -0.7675252112150952 0.32385212170520006
2.355946598333728 -0.9103055149377255 0.34271104478398706
2.5636622322721885 -0.8573972375617986 0.30642014815551194
2.629553340639338 -0.8676512126262348 0.2949080276802841
2.4464246156239335 -0.9437441662740821 0.32690323912983477
2.6757954665503862 -1.0124772343985438 0.28682886589790246
2.744202849695 -1.024808401874726 0.2748771161751965
2.6262932792559557 -1.1056591735055599 0.29547760710203275
2.289882738462791 -1.6349732562987653 -0.3741061706347657
2.411033268079006 -1.3834849433809886 -0.3952729035542997
2.391305274473096 -1.3798138182336823 -0.3918261404818032
2.269224733826884 -1.0302520430988822 -0.370496921313579
2.4404081025431936 -1.3069747275245627 -0.4004051079089042
2.2213273272095795 -1.1280460699943757 -0.3621285582810899
2.378362969053671 -1.0795648035237804 -0.38956493433566564
2.1813649945116524 -1.413031329230024 -0.3551465663266332
2.2759728239952794 -1.585562761066637 -0.37167590932761274
2.8248785715881075 -1.2087841129958778 -0.46757760611837507
2.416250909038166 -0.7618797819401106 -0.3961845001688784
2.5615569977770503 -1.1978578208603106 -0.4215715552784289
2.4687575283248675 -1.0043892901907145 -0.40535815867842007
2.4498586316767685 -1.100809855473022 -0.4020562507206802
2.40578919731128 -0.783499063874936 -0.39435668927357626
2.6402076345231547 -1.098687478525197 -0.43531294813267235
2.176880805510006 -0.7404491529453734 -0.3543631142752122
2.6840662130104858 -1.1727209036958814 -0.442975670037501
-0.3936362319301183 -1.2517064755412728 0.8017631275058248
-0.4071802743569366 -0.940067315545206 0.7242420420383106
-0.4040041614134096 -1.263286144076465 0.7424209368756529
-0.4197185482008024 -1.2296679855818589 0.6524776036501951
-0.4084316231150168 -1.1105452336396724 0.717079784939003
-0.4164493427000342 -1.152677685037656 0.6711893258265895
-0.4348188750473904 -1.0734461284597208 0.5660489222290646
-0.39724153282352903 -1.053867628560928 0.7811277197090516
-0.4546897931157744 -1.3571414574388387 0.45231514250854127
-0.4381795638978236 -1.3537132206875135 0.5468135832221304
-0.449807352953181 -1.3914167165433635 0.48026042274370817
-0.4468915439286177 -1.2811279397001907 0.4969494343014803
-0.4476175501310212 -1.0675452568204586 0.4927940435331354
-0.43777451666358796 -1.5027579618121605 0.549131923660978
-0.45079441281504296 -1.3032328987901987 0.47461085745872067
-0.45480371110768103 -1.351350653274707 0.4516631180900861
0.09005059514109179 -1.5065016249961463 0.3557896823526139
0.086370915302665 -1.0262769322868266 0.33472855700624404
0.10746855139084782 -1.5113874596046892 0.4554836165973224
0.11322049929038636 -1.2627261559020444 0.48840563726686076
0.12179044471696687 -1.7030031439519906 0.5374568326876913
0.09778406332194883 -1.1174086371583707 0.4000531916444521
0.08796789945324951 -1.4653353095111052 0.3438691031538693
0.10697466014754803 -1.1776319328045715 0.4526567659365707
0.15441889807688203 -1.1880702146840125 0.7242100221622306
0.14144013541853984 -1.0975459205386566 0.6499243888488176
0.11496305236586718 -1.131352461272267 0.49837936605765004
0.14890992820927773 -1.2757050125636866 0.6926787178081553
0.1394807866552863 -1.056087041432616 0.6387098017890421
0.10404258053924165 -1.0448677972075733 0.4358746275800779
0.14656233247060102 -1.2710037803395131 0.6792419487722893
0.12653255654673573 -1.2866274073642525 0.5645989254888862
-0.305316955792336 -0.9226165349436339 0.47406765826077596
-0.07423857662975639 -0.9226165349436339 0.39231066848689744
-0.31020389787598623 -0.9226165349436339 0.4075629250590339
-0.15089013625707653 -0.9226165349436339 0.39447997067549023
-0.06763168677884104 -0.9226165349436339 0.5279263950512606
-0.13806831730083888 -0.9226165349436339 0.5243775759042926
-0.3684963654343022 -0.9226165349436339 0.7573468370636567
-0.27020669238891026 -0.9226165349436339 0.6286996615328385
-0.3029058678491705 -0.9226165349436339 0.6659240307557721
-0.19475002278404252 -0.9226165349436339 0.8327846308010414
-0.3996242944802357 -0.9226165349436339 0.5317534779444124
-0.13116564287067706 -0.9226165349436339 0.7580493732040916
-0.1261780310993891 -1.7064582769917909 0.43778077788026926
-0.08246814650312605 -1.7064582769917909 0.5859455911860882
0.002671490106130492 -1.7064582769917909 0.39512193432792586
0.058215893997982465 -1.7064582769917909 0.52954570353899
0.1087135376706328 -1.7064582769917909 0.5637564280135681
-0.061423945931792304 -1.7064582769917909 0.6463718482363622
-0.020029285637654576 -1.7064582769917909 0.7051641730107296
-0.2944043872693939 -1.7064582769917909 0.6350378888343498
0.10771704805751281 -1.7064582769917909 0.7852279101683286
-0.377769884086277 -1.7064582769917909 0.7331928559289067
-0.07993895978400131 -1.7064582769917909 0.7964995471383346
-0.35714920775683 -1.7064582769917909 0.818475320105956
-0.23401617198545058 -1.54376877361728 0.37232027331252515
-0.3313947289489663 -1.3250694683380249 0.3893336995904768
-0.2632962585992892 -1.6416555068578766 0.3774359231080261
-0.2601259138992231 -1.498034900589928 0.3768820185574536
-0.4261338425120507 -1.611700220405975 0.40588597736604426
-0.23233148934572495 -1.4270606320048695 0.37202593516677246
-0.3311470463442241 -1.6743502734985214 0.3892904258979154
-0.4106822072159606 -1.6485575351867519 0.40318635574316153
-0.39650004184498083 -1.1382305629696143 0.4007085286678303
-0.39785622285501054 -1.4649617302643172 0.4009454728817638
-0.12403269090653898 -1.138920092078735 0.35310458655892474
-0.16053323115730442 -0.997803217600097 0.35948175284713
-0.013813478734544471 -1.1444475202305378 0.3338477142127396
-0.038211703600371905 -0.9239783043555336 0.33811043295710513
-0.36037655562794424 -0.9896189417382615 0.39439723911065994
-0.02441875626611284 -0.9941837948633615 0.3357006078380596
-0.2072407227918991 -1.1001814125504943 0.3676422194871414
-0.2243260550541872 -1.0673015741762835 0.37062727132958817
-0.3007578009837674 -1.0649325998762997 0.38398099020997
0.0196366450128381 -1.2322097173623072 0.3280034993043417
-0.03225468760156082 -1.2782826527137763 0.8231274200830729
-0.07721321473939989 -1.5352311885047252 0.8309823176177683
0.14631244826028217 -1.387367252466292 0.7919291881890771
-0.09630166111401568 -1.3438476761303706 0.8343173421373536
-0.034919590471801 -1.5578298698469488 0.8235930167188674
-0.061168452935315476 -1.6915027376604581 0.828179068313064
0.06504037964878182 -1.451895868266773 0.806128580651798
0.024919151520853777 -1.3054648022268966 0.8131383328828886
0.042593016516765086 -1.696424403018035 0.8100504559566875
-0.05083036336067687 -1.4606686922981298 0.8263728562442316
-0.21977081605326304 -1.2622226631202877 0.8558891689405266
-0.2749416636778891 -1.082143292577812 0.8655283048860856
-0.1560984636319319 -1.1922816076071825 0.84476469854742
-0.1492776975363712 -1.2876541874573375 0.8435730131831621
-0.18732089824748582 -1.148740110286441 0.8502197043116655
-0.23036934185807964 -1.1402798295091645 0.8577408829426428
-0.36110138947922266 -1.07413016817552 0.8805816409464948
-0.2592731250431868 -1.2850178774698444 0.8627907871485345
-0.1612265994337698 -1.1710956906440053 0.8456606571971316
0.04506136325543547 -1.088712377321492 0.8096192004875545
-0.5127338607437162 -1.0902314769228894 0.12009231243714591
-0.5174699367077588 -1.3019713100750994 0.09298485517569821
-0.5165846839633716 -1.236390550079878 0.09805169766645302
-0.5215107853837743 -1.178474773864315 0.06985660858153517
-0.5111189365406865 -0.9816621861152705 0.12933551063465443
-0.5587611246420785 -1.2076661983105608 -0.14334984906087725
-0.5439792617170904 -1.016007307242321 -0.05874421339838243
-0.5522523017701918 -1.2332187540267534 -0.1060958778067094
-0.574825134037952 -1.3149971197371448 -0.23529399257804276
-0.5664074294527408 -1.3223535812121225 -0.1871143246386942
-0.58807223320295 -1.3225320003478076 -0.31111523724972334
-0.5556075827121563 -1.6911981000624807 -0.1253002012645654
-0.5871060834020814 -1.5887169534998757 -0.3055853714633545
-0.5550399926365193 -1.569499977805583 -0.12205153637106109
-0.5759327918877606 -1.1310859221063245 -0.24163379541312344
-0.574532283185391 -1.538926560436625 -0.2336178281689317
-0.010266587453559406 -1.6049134909416418 -0.2183881324813277
-0.009369423626632623 -1.5915280819350683 -0.21325311558557347
-0.01041794318898781 -1.2768657883486396 -0.21925443385836443
-0.021710829017882016 -1.4287919718137692 -0.2838905212626415
-0.008858592136452736 -1.6788852942687165 -0.21032931476544625
-0.007744515869900548 -1.3498712586695583 -0.20395277540863688
-0.01974457384746231 -1.342387032172973 -0.27263644121791275
-0.007302597808908962 -1.5245120115055903 -0.2014234082611626
0.013045114251077405 -1.0355157837164373 -0.08496101635233287
0.031017501526129754 -0.9799876340913367 0.017905940099271933
0.014885139199346475 -1.2622477659572955 -0.07442942901634235
-0.0327569625487199 -0.9971904790081181 -0.3471142944590159
-0.038957045100615095 -0.9491976450410247 -0.3826011561708972
0.000892761194413616 -1.1953825301395569 -0.15451635997658264
0.020958662939882244 -1.2993727665820802 -0.03966694073006352
0.019576979736401545 -1.0774370690961188 -0.04757515813864588
-0.23837381126800344 -0.9226165349436339 -0.26069735538806943
-0.3031652944210415 -0.9226165349436339 -0.34309174602482906
-0.3763867690002739 -0.9226165349436339 -0.22291480495781185
-0.31950898317103504 -0.9226165349436339 -0.31983983649178566
-0.5145689199511105 -0.9226165349436339 -0.34363620332885947
-0.29244961013592125 -0.9226165349436339 -0.19577583407289212
-0.401876463320322 -0.9226165349436339 -0.14529444604803735
-0.46314207869358837 -0.9226165349436339 -0.19297901109723903
-0.48251453786940934 -0.9226165349436339 -0.019270781497844836
-0.5078319744580833 -0.9226165349436339 0.1013346247189571
-0.3196297016279906 -0.9226165349436339 -0.006035982446664256
-0.4292915612143198 -0.9226165349436339 -0.05301134891750804
-0.14535678266428595 -1.7064582769917909 -0.0665549638789466
-0.2250400461941489 -1.7064582769917909 -0.3839807712320983
-0.1316309460063862 -1.7064582769917909 -0.4041045492998558
-0.1658864593797202 -1.7064582769917909 -0.26231076110557955
-0.1769968202261873 -1.7064582769917909 -0.3058264972586443
-0.1569599125675628 -1.7064582769917909 -0.13532911122110935
-0.26468125611694115 -1.7064582769917909 0.06213262785515386
-0.48328503329346584 -1.7064582769917909 -0.09517918841967503
-0.12096458428070189 -1.7064582769917909 0.05477263202024435
-0.12034856548262862 -1.7064582769917909 0.059845016846834104
-0.5262959217934228 -1.7064582769917909 -0.018249529343082493
-0.383804180231728 -1.7064582769917909 0.029962151475250165
-0.43901657641587477 -1.63929796840997 -0.3606345516803331
-0.4703953154172992 -1.4715979833551127 -0.35515221941070974
-0.5085333646524959 -1.254891570667521 -0.34848893514000934
-0.46345468997869893 -1.2193410062859862 -0.3563648498740205
-0.5781530172666749 -1.4879593788299865 -0.33632534666345015
-0.3476613812214468 -1.5375950862061334 -0.37659566262839955
-0.4827750695090179 -1.265875720871365 -0.3529892922980571
-0.5678472563570048 -0.9878768635361084 -0.3381259163292848
-0.4265550411306061 -1.2652560925966398 -0.362811767183492
-0.42233460892702934 -1.6218670056107798 -0.3635491394424721
-0.12825837570640589 -0.9935106313767439 -0.4149286299644312
-0.29932765159476843 -1.1891284404842322 -0.38504028386163525
-0.39593268285955285 -1.0823239011280503 -0.36816194849300043
-0.060759404857979815 -0.9278422742554184 -0.42672170380439317
-0.3534582494587673 -1.0512051168896128 -0.37558286355451787
-0.2258077361007656 -1.2369278144486746 -0.397885306255762
-0.1755329821331069 -1.1770477950754505 -0.406669053302186
-0.23764635054421915 -1.0775042339860577 -0.3958169242857909
-0.4130007840136231 -1.1297501236140501 -0.36517989743817925
-0.1497282065838505 -1.0345345284763923 -0.41117753127823387
-0.03135239541303997 -1.2850750611077422 0.05419831222502414
-0.007354645168431373 -1.2882589824679982 0.0500055484381044
-0.12711055738646554 -1.3378924539861918 0.07092868693647772
-0.1892481331377512 -1.5982162161590006 0.0817850453351367
-0.14235556388115533 -1.178227703110647 0.07359221624696602
0.001266735825599108 -1.3113073746509087 0.04849926498834095
-0.07509125828915306 -1.4000890450435335 0.06184014191650608
-0.0006335679760357538 -1.2656209386212653 0.048831276317837596
-0.019405293801772083 -1.5267661141026354 0.05211097593375541
-0.02101670206401579 -1.3568700550573263 0.05239251291697308
-0.30350026010619935 -1.0426631639259152 0.10174659071539549
-0.3919198978385561 -1.2590871255444926 0.11719481612644539
-0.4060574727272717 -1.2800382004559465 0.11966486066912457
-0.49489574236705025 -1.2989466490811634 0.13518622729898033
-0.3142176014505101 -1.2760272661365961 0.10361906960289369
-0.2279779813827717 -1.1233340457610492 0.08855172569222983
-0.3894831137874509 -1.2777293897071968 0.11676907372051665
-0.20666735785166884 -1.1572116467153415 0.08482844289667021
-0.36907330923471504 -0.9254154375766772 0.11320317739462887
-0.46970341118662845 -0.9638430596878574 0.13078475246051735
-0.2903568076737592 -1.0913976026911925 1.3928958922404946
-0.26067355474718906 -0.9948692998907491 1.5627923653041933
-0.2653274281556683 -0.9638743106649555 1.5361552349283036
-0.26856854875764163 -1.2681965574230838 1.5176042034624613
-0.28780430739746315 -1.112285897879832 1.4075055037783402
-0.29246513675708113 -0.956479113762237 1.3808285599908883
-0.25598012522857705 -1.141881812565262 1.5896559009065017
-0.3157680871973993 -1.0123748027351729 1.2474506885836625
-0.321577677514757 -1.6719246382827058 1.2141986421416575
-0.32451373357056934 -1.285197766590422 1.1973936925684483
-0.29997918889377995 -1.2220121188033228 1.337820775109631
-0.32505990416642216 -1.0874688933414651 1.194267604664402
-0.3042957389196855 -1.5055376356570136 1.3131143648311294
-0.3205301791126759 -1.2473265181096906 1.2201941536340704
-0.2972284271702627 -1.2875624384092361 1.3535651652618934
-0.31499534947605207 -1.5500693672526287 1.2518735668236234
0.24591618707200463 -1.2858348024863586 1.2479061448665087
0.2292537143553274 -1.4182080639208419 1.1525360264335127
0.24110072923861087 -1.2718768343544213 1.220344162219107
0.2218471429575892 -1.2662542294367058 1.1101434234030068
0.2429346977606896 -1.5153069028604524 1.2308411513591386
0.2520527745776897 -1.616437806247261 1.283029807911182
0.2510462098604736 -1.2849740548948763 1.277268586397205
0.22273315303829053 -1.4966234152719833 1.115214632686653
0.2371530051807803 -0.9729336680887404 1.1977487817291959
0.26394027374384355 -1.0602038789615387 1.3510696614566593
0.2530938210306409 -0.9475791223419698 1.2889883907218131
0.27001859517633875 -1.1346535827075779 1.3858598300437432
0.2716797014717453 -1.0036025874344103 1.3953674167516967
0.24193256737165225 -0.9956276105915562 1.2251053103760572
0.28342237418640126 -1.1292445774284374 1.4625783347564272
0.26647371721446755 -1.2149381037246947 1.3655701985585076
0.20883382557994745 -0.9226165349436339 1.3020660545499627
0.037949940038902424 -0.9226165349436339 1.2549101023500022
0.10488088117297067 -0.9226165349436339 1.2038351113676877
-0.17033669736576829 -0.9226165349436339 1.2312960480424824
0.18300302481465633 -0.9226165349436339 1.274716519985526
-0.013992481070127148 -0.9226165349436339 1.31508036946231
-0.26064929076819476 -0.9226165349436339 1.458412188045869
-0.019063408142520263 -0.9226165349436339 1.4249036062893667
-0.24818462905238944 -0.9226165349436339 1.3772323165900733
-0.10409244743964363 -0.9226165349436339 1.5812106120348657
-0.15082752765614782 -0.9226165349436339 1.2889721440021698
-0.2169245497548068 -0.9226165349436339 1.5153281828581155
0.05969291282781325 -1.7064582769917909 1.1077757814563047
0.1663884207411217 -1.7064582769917909 1.3380812805530136
-0.03188649898099324 -1.7064582769917909 1.2352592302358139
0.005830057933589931 -1.7064582769917909 1.237703749866111
0.0046119558686929935 -1.7064582769917909 1.2737323972992385
0.040289984841439294 -1.7064582769917909 1.3630196698802333
0.0869424153171255 -1.7064582769917909 1.485921204486046
-0.03831997670079325 -1.7064582769917909 1.5450604948370144
-0.13662975678661132 -1.7064582769917909 1.5260201321173752
-0.1721339937904402 -1.7064582769917909 1.4651252845371203
-0.13058183716980987 -1.7064582769917909 1.4477889322652253
0.10872284543004004 -1.7064582769917909 1.4780487599642438
-0.22705275824581755 -1.416953837783094 1.1398749816884468
-0.17782538411723517 -1.6855278639796119 1.1312742813846928
-0.15125176978904056 -1.538584726905067 1.1266315049443452
-0.32871428875568726 -0.9692997582291131 1.157636651324786
-0.15370625104923552 -1.3984999283681547 1.1270603366278102
-0.09528288627954536 -1.5082365778911846 1.116852970096162
-0.2377153364498529 -1.1082067982396084 1.1417378809639336
-0.3072144257042249 -1.236563665522719 1.1538803291168538
-0.07467450949041528 -1.444887792800071 1.113252402817331
-0.25906530267493466 -1.5044737986678554 1.145468014131662
-0.12841771944012245 -1.1439785612090363 1.1226420818388407
0.03657770908460595 -1.0373299790769668 1.09381510787667
0.16873137588133832 -1.0665723308116286 1.070726042041226
